# .PCD v0.7 - Point Cloud Data file format
VERSION 0.7
FIELDS x y z rgb
SIZE 4 4 4 4
TYPE F F F F
COUNT 1 1 1 1
WIDTH 1003
HEIGHT 1
VIEWPOINT 0 0 0 1 0 0 0
POINTS 1003
DATA ascii
0.41640866 -0.27788603 0.82518113 1.2968357e-38
0.42460144 -0.2730031 0.82544416 1.2968357e-38
0.43105936 -0.27043992 0.82110995 1.2968357e-38
0.42957628 -0.26977056 0.82819217 1.2968357e-38
0.43292859 -0.26856366 0.82549781 1.2968357e-38
0.45914316 -0.42089114 0.83355725 1.2968357e-38
0.46422222 -0.42318621 0.83762294 1.2968357e-38
0.45618725 -0.41460678 0.83515632 1.2968357e-38
0.46275967 -0.41833076 0.83925802 1.2968357e-38
0.44828939 -0.40286434 0.83344281 1.2968357e-38
0.45187959 -0.40685308 0.83603311 1.2968357e-38
0.46710765 -0.40002826 0.83643806 1.2968357e-38
0.43952143 -0.39012206 0.83028454 1.2968357e-38
0.4446992 -0.39510936 0.83527875 1.2968357e-38
0.4378038 -0.38403106 0.83402294 1.2968357e-38
0.44135895 -0.38766298 0.83724976 1.2968357e-38
0.428994 -0.37166977 0.83279753 1.2968357e-38
0.43323788 -0.3756316 0.83558381 1.2968357e-38
0.49953854 -0.37924635 0.83765852 1.2968357e-38
0.42681503 -0.36433992 0.83567727 1.2968357e-38
0.43120334 -0.36616731 0.83919513 1.2968357e-38
0.41887569 -0.35232857 0.83346897 1.2968357e-38
0.42483628 -0.35503018 0.83729738 1.2968357e-38
0.4305639 -0.35838506 0.83990926 1.2968357e-38
0.487681 -0.35763928 0.83730131 1.2968357e-38
0.41646916 -0.34433028 0.83515477 1.2968357e-38
0.42329389 -0.3452976 0.83852893 1.2968357e-38
0.47797051 -0.34242189 0.83870369 1.2968357e-38
0.40843067 -0.33260253 0.83383816 1.2968357e-38
0.41513434 -0.33499634 0.83654469 1.2968357e-38
0.42206571 -0.3359457 0.83918589 1.2968357e-38
0.47440881 -0.33550501 0.83672875 1.2968357e-38
0.4061178 -0.32466787 0.83505929 1.2968357e-38
0.41479683 -0.32506639 0.83808649 1.2968357e-38
0.42072466 -0.32718155 0.83964527 1.2968357e-38
0.46568176 -0.32309577 0.83858627 1.2968357e-38
0.47081488 -0.32840034 0.83629882 1.2968357e-38
0.39971218 -0.31126815 0.83352935 1.2968357e-38
0.40435123 -0.31515455 0.83690161 1.2968357e-38
0.41341814 -0.31677821 0.83924472 1.2968357e-38
0.45846757 -0.31409296 0.83919907 1.2968357e-38
0.46194664 -0.3166261 0.83791739 1.2968357e-38
0.39784238 -0.30408958 0.83578569 1.2968357e-38
0.4037604 -0.30448407 0.83954638 1.2968357e-38
0.41274044 -0.30055323 0.83671027 1.2968357e-38
0.45686281 -0.30577338 0.83685547 1.2968357e-38
0.3975946 -0.29539666 0.83399183 1.2968357e-38
0.4045746 -0.29469162 0.83810437 1.2968357e-38
0.41316855 -0.29459816 0.83930379 1.2968357e-38
0.4512336 -0.29895937 0.83935893 1.2968357e-38
0.39902464 -0.28910604 0.83176303 1.2968357e-38
0.40558249 -0.28603515 0.83495545 1.2968357e-38
0.41434574 -0.2839866 0.83787984 1.2968357e-38
0.43999904 -0.28143668 0.8396427 1.2968357e-38
0.44317976 -0.28415242 0.83923692 1.2968357e-38
0.41702336 -0.27844983 0.83379519 1.2968357e-38
0.42517447 -0.27556613 0.83536351 1.2968357e-38
0.43452525 -0.27422389 0.83684611 1.2968357e-38
0.44094101 -0.27761188 0.83794987 1.2968357e-38
0.43366116 -0.26934853 0.83152014 1.2968357e-38
0.46906239 -0.4206461 0.84035695 1.2968357e-38
0.45860052 -0.41143757 0.84055597 1.2968357e-38
0.465702 -0.41409779 0.84169066 1.2968357e-38
0.47366455 -0.41341797 0.84352821 1.2968357e-38
0.45601845 -0.40411603 0.84186369 1.2968357e-38
0.46482456 -0.40511283 0.84303427 1.2968357e-38
0.47462234 -0.40510604 0.84453946 1.2968357e-38
0.48332301 -0.40349576 0.84607404 1.2968357e-38
0.44768149 -0.39366731 0.84169364 1.2968357e-38
0.45489237 -0.39491209 0.84272993 1.2968357e-38
0.46529993 -0.39512151 0.8439399 1.2968357e-38
0.47525513 -0.39490569 0.84551454 1.2968357e-38
0.48485094 -0.39507848 0.84627241 1.2968357e-38
0.4940401 -0.39390057 0.84486383 1.2968357e-38
0.43941465 -0.38114324 0.84104222 1.2968357e-38
0.4454411 -0.3845849 0.84267962 1.2968357e-38
0.45509022 -0.3847478 0.84384567 1.2968357e-38
0.46491569 -0.38529304 0.84479755 1.2968357e-38
0.47485504 -0.38521791 0.84609693 1.2968357e-38
0.48506811 -0.38476592 0.84572411 1.2968357e-38
0.49501169 -0.38548395 0.84418118 1.2968357e-38
0.50163484 -0.38918248 0.84316599 1.2968357e-38
0.43692714 -0.37409347 0.84170496 1.2968357e-38
0.44456825 -0.37499806 0.84358484 1.2968357e-38
0.45486385 -0.37491363 0.84468323 1.2968357e-38
0.46517873 -0.37481269 0.84572661 1.2968357e-38
0.47482708 -0.37525642 0.84601176 1.2968357e-38
0.48449853 -0.37533411 0.84517843 1.2968357e-38
0.49246642 -0.37601712 0.84409189 1.2968357e-38
0.5010137 -0.37539291 0.84721977 1.2968357e-38
0.43560955 -0.36486134 0.84194618 1.2968357e-38
0.44500074 -0.36488816 0.84406221 1.2968357e-38
0.45504871 -0.36507392 0.84536445 1.2968357e-38
0.46447688 -0.36508703 0.8459549 1.2968357e-38
0.47474423 -0.36497223 0.84545094 1.2968357e-38
0.48434225 -0.36535719 0.84456015 1.2968357e-38
0.49033326 -0.36919576 0.84408331 1.2968357e-38
0.43459281 -0.35476816 0.84223509 1.2968357e-38
0.44509235 -0.35505009 0.84427786 1.2968357e-38
0.45517227 -0.35501924 0.84523332 1.2968357e-38
0.46482939 -0.35495302 0.84545451 1.2968357e-38
0.47509664 -0.35523781 0.84485584 1.2968357e-38
0.48268634 -0.35648412 0.84434986 1.2968357e-38
0.42812732 -0.34433866 0.84079099 1.2968357e-38
0.4352282 -0.34489867 0.84288007 1.2968357e-38
0.44519275 -0.34514973 0.84434211 1.2968357e-38
0.45497334 -0.34477314 0.84494865 1.2968357e-38
0.46530369 -0.34496823 0.84483355 1.2968357e-38
0.47411421 -0.345936 0.84393311 1.2968357e-38
0.48017082 -0.34915948 0.84203076 1.2968357e-38
0.42637444 -0.33459404 0.84126896 1.2968357e-38
0.43504661 -0.33502662 0.84309107 1.2968357e-38
0.44495854 -0.33505571 0.84421891 1.2968357e-38
0.45495898 -0.33506802 0.84460688 1.2968357e-38
0.46515715 -0.33544794 0.84412402 1.2968357e-38
0.47193974 -0.33869958 0.84283143 1.2968357e-38
0.41986197 -0.32123601 0.84013331 1.2968357e-38
0.42564446 -0.32495028 0.84182727 1.2968357e-38
0.43558413 -0.32500908 0.84330839 1.2968357e-38
0.44505107 -0.3250286 0.84410405 1.2968357e-38
0.45474848 -0.32508302 0.84402984 1.2968357e-38
0.46324489 -0.32647851 0.84195858 1.2968357e-38
0.41674295 -0.31365687 0.84069169 1.2968357e-38
0.42512983 -0.31507942 0.84238571 1.2968357e-38
0.4353182 -0.31515977 0.84332615 1.2968357e-38
0.44501925 -0.31467122 0.84362972 1.2968357e-38
0.45378533 -0.31565288 0.84219319 1.2968357e-38
0.40656665 -0.30521595 0.84035516 1.2968357e-38
0.41505605 -0.30512774 0.8410483 1.2968357e-38
0.42453954 -0.30474043 0.84249008 1.2968357e-38
0.43514273 -0.30531827 0.84244448 1.2968357e-38
0.44517094 -0.30509099 0.84223652 1.2968357e-38
0.4519119 -0.30599242 0.84154117 1.2968357e-38
0.41804713 -0.29555735 0.84049815 1.2968357e-38
0.4249652 -0.29498312 0.84226304 1.2968357e-38
0.4346917 -0.29479787 0.84340107 1.2968357e-38
0.4442791 -0.29527774 0.8419221 1.2968357e-38
0.4185569 -0.28612006 0.84055352 1.2968357e-38
0.42520219 -0.28498423 0.84143561 1.2968357e-38
0.43446922 -0.28492618 0.84227645 1.2968357e-38
0.44204456 -0.28714609 0.84173208 1.2968357e-38
0.42594403 -0.27977163 0.84001172 1.2968357e-38
0.43392876 -0.27949324 0.84017515 1.2968357e-38
0.4696911 -0.36841428 0.85352701 1.2968357e-38
0.48485589 -0.35153475 0.85058033 1.2968357e-38
0.41523081 -0.31443876 0.85116667 1.2968357e-38
0.62858105 -0.30258155 0.63706917 1.8978449e-38
0.63192534 -0.30377185 0.6368534 1.8978449e-38
0.6246984 -0.29513955 0.63515753 1.8978449e-38
0.61746997 -0.28377751 0.63460225 1.8978449e-38
0.62097096 -0.28891894 0.63580889 1.8978449e-38
0.60823333 -0.2719717 0.63357514 1.8978449e-38
0.61231077 -0.27660602 0.63534856 1.8978449e-38
0.59912735 -0.26140159 0.63050061 1.8978449e-38
0.60365564 -0.26557952 0.63535327 1.8978449e-38
0.5955745 -0.25543895 0.63505882 1.8978449e-38
0.58689535 -0.24432988 0.63509423 1.8978449e-38
0.59086263 -0.24921641 0.63567013 1.8978449e-38
0.57736707 -0.23326804 0.63484293 1.8978449e-38
0.58161551 -0.23805766 0.63544655 1.8978449e-38
0.56780517 -0.22204883 0.63546115 1.8978449e-38
0.5720644 -0.2271159 0.63444084 1.8978449e-38
0.55896378 -0.21091925 0.63435072 1.8978449e-38
0.56309569 -0.21615326 0.63489014 1.8978449e-38
0.55444109 -0.20480749 0.63532513 1.8978449e-38
0.54762048 -0.1943973 0.6349377 1.8978449e-38
0.55063808 -0.1985857 0.6378144 1.8978449e-38
0.53933668 -0.18049374 0.63145185 1.8978449e-38
0.54218686 -0.18527621 0.63513917 1.8978449e-38
0.53724253 -0.17457262 0.63526654 1.8978449e-38
0.54010838 -0.17930184 0.63999909 1.8978449e-38
0.53823191 -0.16884248 0.63578564 1.8978449e-38
0.54487908 -0.16533178 0.63534564 1.8978449e-38
0.55295902 -0.16137439 0.63438058 1.8978449e-38
0.55797756 -0.15878737 0.63433194 1.8978449e-38
0.5652979 -0.15458024 0.63496166 1.8978449e-38
0.57170755 -0.15093794 0.63683134 1.8978449e-38
0.62936664 -0.30091411 0.64717555 1.8978449e-38
0.63187051 -0.30444714 0.64952558 1.8978449e-38
0.62548792 -0.2944884 0.64514059 1.8978449e-38
0.61826795 -0.28247392 0.64451277 1.8978449e-38
0.62141496 -0.28729439 0.6455071 1.8978449e-38
0.60916489 -0.2705768 0.64228237 1.8978449e-38
0.61379337 -0.27586514 0.64489388 1.8978449e-38
0.60498345 -0.26520082 0.64513195 1.8978449e-38
0.59579849 -0.25410348 0.64447671 1.8978449e-38
0.60024339 -0.25915805 0.64669508 1.8978449e-38
0.58758241 -0.24321915 0.64469719 1.8978449e-38
0.59163326 -0.24826293 0.64550513 1.8978449e-38
0.57817918 -0.23211943 0.64536834 1.8978449e-38
0.5825237 -0.23700421 0.64537638 1.8978449e-38
0.56889743 -0.22221877 0.64410454 1.8978449e-38
0.57325351 -0.22679885 0.64498687 1.8978449e-38
0.55932277 -0.21038918 0.64476216 1.8978449e-38
0.56352383 -0.21559316 0.64512205 1.8978449e-38
0.57572156 -0.21634087 0.64169103 1.8978449e-38
0.55545408 -0.20479566 0.64460289 1.8978449e-38
0.54775202 -0.19326849 0.64522022 1.8978449e-38
0.55116719 -0.19837137 0.64422619 1.8978449e-38
0.54312629 -0.18495561 0.64498073 1.8978449e-38
0.53818816 -0.17392987 0.64474064 1.8978449e-38
0.54051441 -0.17900792 0.64650375 1.8978449e-38
0.53801209 -0.16898617 0.64465171 1.8978449e-38
0.54462421 -0.16569315 0.64416045 1.8978449e-38
0.55324829 -0.1613691 0.64355206 1.8978449e-38
0.55865562 -0.15869641 0.64269161 1.8978449e-38
0.56465429 -0.15574382 0.64301485 1.8978449e-38
0.57278812 -0.15155506 0.64219773 1.8978449e-38
0.63516754 -0.30348605 0.65305108 1.8978449e-38
0.64070034 -0.30592752 0.65637863 1.8978449e-38
0.62771744 -0.29432732 0.65157819 1.8978449e-38
0.63218623 -0.29796654 0.65342414 1.8978449e-38
0.61930192 -0.28171903 0.6552254 1.8978449e-38
0.62256444 -0.28654233 0.65324312 1.8978449e-38
0.61435282 -0.2748172 0.65521932 1.8978449e-38
0.59884435 -0.26736498 0.65449572 1.8978449e-38
0.60553032 -0.26410741 0.65493959 1.8978449e-38
0.61030054 -0.2694231 0.6568681 1.8978449e-38
0.59705007 -0.2536912 0.65478081 1.8978449e-38
0.60093021 -0.25813043 0.65647554 1.8978449e-38
0.5882324 -0.24251412 0.65458649 1.8978449e-38
0.59193492 -0.24707808 0.65518266 1.8978449e-38
0.57876742 -0.2310192 0.65396798 1.8978449e-38
0.58336532 -0.2364361 0.6552422 1.8978449e-38
0.56842929 -0.22482036 0.65293616 1.8978449e-38
0.57388484 -0.22515708 0.65489972 1.8978449e-38
0.5597381 -0.21019596 0.6509409 1.8978449e-38
0.56517076 -0.21527573 0.65573436 1.8978449e-38
0.55636078 -0.20516872 0.65503931 1.8978449e-38
0.54811931 -0.19313504 0.65572304 1.8978449e-38
0.55118603 -0.19805017 0.65575397 1.8978449e-38
0.54399633 -0.18536715 0.65465778 1.8978449e-38
0.53829628 -0.17368372 0.65514863 1.8978449e-38
0.54076606 -0.17885327 0.65396231 1.8978449e-38
0.53814894 -0.16740184 0.65646785 1.8978449e-38
0.54767603 -0.16791156 0.65092146 1.8978449e-38
0.54717183 -0.15756783 0.65853596 1.8978449e-38
0.55721235 -0.15303095 0.65831316 1.8978449e-38
0.56530219 -0.15146072 0.65334082 1.8978449e-38
0.56737107 -0.14881139 0.65815139 1.8978449e-38
0.57235229 -0.14819556 0.65562546 1.8978449e-38
0.63561547 -0.30262756 0.66642118 1.8978449e-38
0.62641823 -0.29288054 0.66662514 1.8978449e-38
0.63153845 -0.2982842 0.66697353 1.8978449e-38
0.61923635 -0.28126574 0.6644814 1.8978449e-38
0.62205172 -0.28622532 0.66561788 1.8978449e-38
0.60696304 -0.27974269 0.6677407 1.8978449e-38
0.61590421 -0.27535576 0.66529989 1.8978449e-38
0.60716158 -0.26404235 0.66479963 1.8978449e-38
0.61186433 -0.26867184 0.6650036 1.8978449e-38
0.59752518 -0.25218222 0.66503668 1.8978449e-38
0.60191011 -0.25756419 0.66517758 1.8978449e-38
0.58856732 -0.24111569 0.66394126 1.8978449e-38
0.59271097 -0.24611354 0.66513652 1.8978449e-38
0.57911223 -0.23032735 0.66014242 1.8978449e-38
0.58395219 -0.23509106 0.66532779 1.8978449e-38
0.57558978 -0.22497539 0.664994 1.8978449e-38
0.56656784 -0.21441698 0.66515583 1.8978449e-38
0.57132179 -0.21921669 0.66747946 1.8978449e-38
0.55694324 -0.20388219 0.66494256 1.8978449e-38
0.56147188 -0.20869565 0.66585797 1.8978449e-38
0.54864305 -0.19211756 0.66447109 1.8978449e-38
0.55198938 -0.19732939 0.6648168 1.8978449e-38
0.54418898 -0.18477647 0.66489536 1.8978449e-38
0.53859127 -0.17324772 0.66447783 1.8978449e-38
0.54102272 -0.17725356 0.66708416 1.8978449e-38
0.53846163 -0.16546823 0.66485226 1.8978449e-38
0.54135245 -0.160946 0.66510278 1.8978449e-38
0.54605091 -0.15779078 0.66567433 1.8978449e-38
0.55445111 -0.15295383 0.66592872 1.8978449e-38
0.56512076 -0.15020795 0.66677231 1.8978449e-38
0.56519353 -0.14945236 0.66520166 1.8978449e-38
0.57461876 -0.14849301 0.66522437 1.8978449e-38
0.58079147 -0.14893308 0.66847813 1.8978449e-38
0.63673109 -0.30284452 0.67519373 1.8978449e-38
0.61688936 -0.29193863 0.67676264 1.8978449e-38
0.62711138 -0.29312366 0.67551172 1.8978449e-38
0.63169074 -0.29803118 0.67452604 1.8978449e-38
0.61935556 -0.28028667 0.67467225 1.8978449e-38
0.62220788 -0.28525189 0.6748625 1.8978449e-38
0.6162734 -0.27476227 0.67529154 1.8978449e-38
0.60756564 -0.26298609 0.6750524 1.8978449e-38
0.61207622 -0.26834166 0.67552966 1.8978449e-38
0.59887564 -0.25226521 0.67460686 1.8978449e-38
0.60273963 -0.25694251 0.67535162 1.8978449e-38
0.58892924 -0.24006815 0.67129767 1.8978449e-38
0.5933919 -0.24525158 0.67484182 1.8978449e-38
0.5852536 -0.23465066 0.6749357 1.8978449e-38
0.57710594 -0.22426462 0.67468667 1.8978449e-38
0.58135891 -0.22924013 0.67680633 1.8978449e-38
0.56681204 -0.21236318 0.67442918 1.8978449e-38
0.57214135 -0.21748126 0.67557096 1.8978449e-38
0.55785078 -0.20242427 0.67564994 1.8978449e-38
0.5624063 -0.20758885 0.6746071 1.8978449e-38
0.54893345 -0.1920533 0.67523867 1.8978449e-38
0.55276495 -0.19685556 0.67534804 1.8978449e-38
0.54583704 -0.18520695 0.67500746 1.8978449e-38
0.53984934 -0.17051573 0.67626619 1.8978449e-38
0.5419786 -0.17570414 0.67505729 1.8978449e-38
0.53846753 -0.16553286 0.67501098 1.8978449e-38
0.54123288 -0.1609755 0.6741482 1.8978449e-38
0.54633343 -0.15764636 0.67554325 1.8978449e-38
0.55489302 -0.15320107 0.67501479 1.8978449e-38
0.56131059 -0.15052134 0.67645192 1.8978449e-38
0.5653646 -0.14880128 0.67768377 1.8978449e-38
0.57724512 -0.14982578 0.67035007 1.8978449e-38
0.63667655 -0.30067179 0.68162817 1.8978449e-38
0.64089328 -0.30335724 0.68197948 1.8978449e-38
0.6267221 -0.29246643 0.68527931 1.8978449e-38
0.63276851 -0.29581803 0.68346733 1.8978449e-38
0.61984092 -0.28075695 0.68430436 1.8978449e-38
0.62275708 -0.28584632 0.68544781 1.8978449e-38
0.61691338 -0.27506152 0.68548095 1.8978449e-38
0.60806686 -0.2621561 0.68623179 1.8978449e-38
0.61194748 -0.26718545 0.68458974 1.8978449e-38
0.59920973 -0.25114062 0.68441033 1.8978449e-38
0.60315573 -0.25605249 0.68479043 1.8978449e-38
0.59444618 -0.24505801 0.6850428 1.8978449e-38
0.58662033 -0.23524027 0.68502688 1.8978449e-38
0.57774997 -0.22314157 0.68470728 1.8978449e-38
0.58179343 -0.22834611 0.68555152 1.8978449e-38
0.56815547 -0.21166304 0.68400133 1.8978449e-38
0.57270634 -0.21657856 0.68530887 1.8978449e-38
0.5588786 -0.20148118 0.68523282 1.8978449e-38
0.56337762 -0.20636018 0.68497646 1.8978449e-38
0.54966331 -0.19113107 0.68256778 1.8978449e-38
0.55332214 -0.195365 0.68532896 1.8978449e-38
0.54618216 -0.18506379 0.68617451 1.8978449e-38
0.53901404 -0.17288679 0.68667722 1.8978449e-38
0.54134852 -0.17677471 0.68799984 1.8978449e-38
0.53807962 -0.16526122 0.68555593 1.8978449e-38
0.54090559 -0.1605562 0.6853835 1.8978449e-38
0.54526925 -0.15755923 0.68606073 1.8978449e-38
0.55500782 -0.15250991 0.68436176 1.8978449e-38
0.55965221 -0.14969099 0.68877614 1.8978449e-38
0.56554413 -0.14864029 0.68511957 1.8978449e-38
0.57391781 -0.14701024 0.68478119 1.8978449e-38
0.62727487 -0.2921682 0.69489801 1.8978449e-38
0.63262552 -0.29732013 0.69618231 1.8978449e-38
0.62358356 -0.28504398 0.69509089 1.8978449e-38
0.61750048 -0.27480301 0.69443464 1.8978449e-38
0.62054402 -0.27965963 0.69727665 1.8978449e-38
0.60888129 -0.26180986 0.6953091 1.8978449e-38
0.61253005 -0.26680556 0.69520301 1.8978449e-38
0.60361725 -0.25506619 0.69500816 1.8978449e-38
0.5957377 -0.2448798 0.69530642 1.8978449e-38
0.58715272 -0.23395109 0.69472474 1.8978449e-38
0.59117311 -0.23904414 0.6952244 1.8978449e-38
0.57825166 -0.22260192 0.6945473 1.8978449e-38
0.58199555 -0.22728164 0.69525158 1.8978449e-38
0.5690878 -0.21089736 0.69516587 1.8978449e-38
0.57324499 -0.21617395 0.69523168 1.8978449e-38
0.56413037 -0.20505939 0.69491011 1.8978449e-38
0.55495948 -0.19486935 0.69483608 1.8978449e-38
0.54738516 -0.18456277 0.69495183 1.8978449e-38
0.55068105 -0.18951285 0.69642085 1.8978449e-38
0.53984058 -0.17090118 0.69411588 1.8978449e-38
0.54284596 -0.17590062 0.69325942 1.8978449e-38
0.53906423 -0.1655003 0.6943568 1.8978449e-38
0.54109919 -0.16302437 0.69401574 1.8978449e-38
0.54612356 -0.15687989 0.69449222 1.8978449e-38
0.55347002 -0.15171333 0.69474447 1.8978449e-38
0.55906171 -0.1498941 0.69829828 1.8978449e-38
0.56510365 -0.14823294 0.69524741 1.8978449e-38
0.57391942 -0.14615102 0.6948427 1.8978449e-38
0.63706005 -0.30085883 0.70243406 1.8978449e-38
0.64221746 -0.30372137 0.70117992 1.8978449e-38
0.62846941 -0.29138052 0.70373535 1.8978449e-38
0.63341272 -0.29645684 0.7050069 1.8978449e-38
0.62429571 -0.28502232 0.70542884 1.8978449e-38
0.61760414 -0.27394342 0.70489085 1.8978449e-38
0.62063277 -0.27901587 0.70456827 1.8978449e-38
0.60948396 -0.26086131 0.70363045 1.8978449e-38
0.61274797 -0.26577491 0.70538187 1.8978449e-38
0.60523039 -0.25491202 0.70513386 1.8978449e-38
0.59665686 -0.2437644 0.70500565 1.8978449e-38
0.60052919 -0.24899311 0.70406061 1.8978449e-38
0.5880267 -0.23306061 0.70460492 1.8978449e-38
0.59221381 -0.23808749 0.70512694 1.8978449e-38
0.57830173 -0.22128385 0.70399171 1.8978449e-38
0.58254206 -0.22623911 0.70517719 1.8978449e-38
0.56973302 -0.21065672 0.70368648 1.8978449e-38
0.57389766 -0.21554115 0.70546961 1.8978449e-38
0.56551564 -0.20504098 0.70525533 1.8978449e-38
0.55650252 -0.19410256 0.70459378 1.8978449e-38
0.56089884 -0.19913884 0.70590687 1.8978449e-38
0.548154 -0.1826859 0.70407164 1.8978449e-38
0.55215311 -0.18685664 0.70622301 1.8978449e-38
0.53938359 -0.17111373 0.70221412 1.8978449e-38
0.54389673 -0.17530091 0.70567703 1.8978449e-38
0.53951192 -0.16738948 0.70254236 1.8978449e-38
0.54081267 -0.16388835 0.70572996 1.8978449e-38
0.54459482 -0.15612748 0.70537674 1.8978449e-38
0.5551855 -0.15142886 0.70496851 1.8978449e-38
0.56532323 -0.14854918 0.7041567 1.8978449e-38
0.57479835 -0.14599127 0.7044583 1.8978449e-38
0.58053529 -0.14521825 0.70909482 1.8978449e-38
0.63803113 -0.30038136 0.71237266 1.8978449e-38
0.62882203 -0.29028267 0.71019363 1.8978449e-38
0.6338312 -0.29496765 0.71513152 1.8978449e-38
0.62583357 -0.2848562 0.714881 1.8978449e-38
0.61842644 -0.27340829 0.71432221 1.8978449e-38
0.6215328 -0.27816886 0.71573538 1.8978449e-38
0.61345792 -0.26518017 0.71510857 1.8978449e-38
0.60653311 -0.25502488 0.71498048 1.8978449e-38
0.61003363 -0.25985652 0.71639615 1.8978449e-38
0.59736711 -0.24281581 0.71500069 1.8978449e-38
0.60151815 -0.24807268 0.71470523 1.8978449e-38
0.58862329 -0.2319435 0.71472096 1.8978449e-38
0.59256929 -0.23680902 0.71512061 1.8978449e-38
0.57890332 -0.22036523 0.71224582 1.8978449e-38
0.58328646 -0.22525704 0.71531361 1.8978449e-38
0.57484519 -0.21491723 0.71492314 1.8978449e-38
0.56673014 -0.20485659 0.7151438 1.8978449e-38
0.57132733 -0.20976281 0.71881551 1.8978449e-38
0.55716473 -0.19333005 0.71486253 1.8978449e-38
0.56140316 -0.19840561 0.7150501 1.8978449e-38
0.54926413 -0.18164104 0.71583992 1.8978449e-38
0.55233353 -0.18665831 0.715177 1.8978449e-38
0.56512654 -0.18718815 0.71279663 1.8978449e-38
0.54606664 -0.17468493 0.71281815 1.8978449e-38
0.54225951 -0.16433492 0.71450204 1.8978449e-38
0.53918231 -0.15354906 0.71509498 1.8978449e-38
0.54638559 -0.15620911 0.71402991 1.8978449e-38
0.55211234 -0.15204181 0.71642405 1.8978449e-38
0.55632293 -0.14925985 0.71593225 1.8978449e-38
0.56523544 -0.14721288 0.71525866 1.8978449e-38
0.57517785 -0.14614548 0.71479219 1.8978449e-38
0.58163184 -0.14553395 0.71508044 1.8978449e-38
0.63500261 -0.29463238 0.7248739 1.8978449e-38
0.64124703 -0.29876715 0.72931778 1.8978449e-38
0.62665164 -0.28367585 0.72540122 1.8978449e-38
0.63072282 -0.28904736 0.72616076 1.8978449e-38
0.61910379 -0.27220654 0.72437066 1.8978449e-38
0.62224144 -0.27705267 0.72494334 1.8978449e-38
0.61481702 -0.26534244 0.72490722 1.8978449e-38
0.60720211 -0.2543959 0.72457999 1.8978449e-38
0.61097592 -0.25931874 0.72729903 1.8978449e-38
0.59833819 -0.24253123 0.72516942 1.8978449e-38
0.60218322 -0.24742226 0.72490692 1.8978449e-38
0.58925122 -0.23123571 0.72426772 1.8978449e-38
0.59327632 -0.23612189 0.72524697 1.8978449e-38
0.58432597 -0.22483253 0.72510272 1.8978449e-38
0.57599211 -0.21436471 0.72466403 1.8978449e-38
0.58039069 -0.21936293 0.72731292 1.8978449e-38
0.5669961 -0.20316505 0.72425777 1.8978449e-38
0.57123649 -0.20796148 0.726394 1.8978449e-38
0.5581044 -0.19250651 0.72466046 1.8978449e-38
0.562298 -0.19730365 0.72518802 1.8978449e-38
0.54887259 -0.18174791 0.72384065 1.8978449e-38
0.552966 -0.18635832 0.72561824 1.8978449e-38
0.54505259 -0.17458837 0.72531378 1.8978449e-38
0.54363537 -0.16571867 0.72436857 1.8978449e-38
0.55337936 -0.15072072 0.72002673 1.8978449e-38
0.56634653 -0.14652209 0.72460532 1.8978449e-38
0.57732666 -0.14566053 0.7261095 1.8978449e-38
0.63632286 -0.29267055 0.7345342 1.8978449e-38
0.64211428 -0.29760635 0.7339108 1.8978449e-38
0.62792522 -0.28344026 0.73465067 1.8978449e-38
0.63212168 -0.28791401 0.73607296 1.8978449e-38
0.61939365 -0.27091235 0.73468733 1.8978449e-38
0.62287539 -0.27609643 0.7352736 1.8978449e-38
0.61531866 -0.26477385 0.73483664 1.8978449e-38
0.60727191 -0.25349519 0.73487544 1.8978449e-38
0.61092883 -0.25829944 0.73559016 1.8978449e-38
0.59847701 -0.24207506 0.7351594 1.8978449e-38
0.60230762 -0.24720132 0.73515373 1.8978449e-38
0.58963978 -0.23030509 0.73328745 1.8978449e-38
0.593512 -0.23534769 0.7348184 1.8978449e-38
0.58586645 -0.22506021 0.73525727 1.8978449e-38
0.5768013 -0.21370219 0.73483276 1.8978449e-38
0.58090597 -0.21877776 0.73497003 1.8978449e-38
0.56788051 -0.20261957 0.73514253 1.8978449e-38
0.57195097 -0.2075561 0.73564678 1.8978449e-38
0.55870086 -0.19150165 0.73465681 1.8978449e-38
0.56288522 -0.1964853 0.73536742 1.8978449e-38
0.54860204 -0.1803565 0.73063433 1.8978449e-38
0.63789034 -0.29193237 0.74473363 1.8978449e-38
0.64125425 -0.29590261 0.74448597 1.8978449e-38
0.62907916 -0.28184181 0.74443215 1.8978449e-38
0.63330549 -0.28648838 0.74534929 1.8978449e-38
0.62373072 -0.27488944 0.74502367 1.8978449e-38
0.67344826 -0.27476242 0.74882728 1.8978449e-38
0.61648458 -0.26492259 0.7446444 1.8978449e-38
0.62053859 -0.26938236 0.74969113 1.8978449e-38
0.66876954 -0.26468563 0.74949682 1.8978449e-38
0.67042297 -0.26375413 0.74790221 1.8978449e-38
0.6069054 -0.25334394 0.74587989 1.8978449e-38
0.61127287 -0.25801456 0.74451274 1.8978449e-38
0.66717356 -0.25583437 0.74797744 1.8978449e-38
0.59877586 -0.24223158 0.7447713 1.8978449e-38
0.6025722 -0.24714118 0.74539357 1.8978449e-38
0.6581924 -0.24252529 0.7477349 1.8978449e-38
0.66288263 -0.24836989 0.74754667 1.8978449e-38
0.59359819 -0.2350139 0.74518055 1.8978449e-38
0.64819795 -0.232403 0.7490139 1.8978449e-38
0.65307409 -0.23473173 0.74646306 1.8978449e-38
0.64578378 -0.22541709 0.74683547 1.8978449e-38
0.6500476 -0.22869386 0.74486637 1.8978449e-38
0.64107996 -0.21836723 0.74697185 1.8978449e-38
0.58123207 -0.14845414 0.74966264 1.8978449e-38
0.63927925 -0.29109141 0.75222301 1.8978449e-38
0.64513397 -0.29341713 0.75389421 1.8978449e-38
0.65510637 -0.29418662 0.75694209 1.8978449e-38
0.66149229 -0.29326764 0.75915813 1.8978449e-38
0.63520592 -0.28395608 0.75488275 1.8978449e-38
0.64455807 -0.28506187 0.75770664 1.8978449e-38
0.65488106 -0.2850619 0.75846648 1.8978449e-38
0.66382504 -0.28330332 0.75706589 1.8978449e-38
0.62640464 -0.27393585 0.75499457 1.8978449e-38
0.63443589 -0.2765401 0.75923592 1.8978449e-38
0.64605057 -0.27573013 0.75927413 1.8978449e-38
0.65569526 -0.27481642 0.7575959 1.8978449e-38
0.66383064 -0.27501923 0.75531304 1.8978449e-38
0.67081314 -0.27632657 0.75135201 1.8978449e-38
0.61777133 -0.26345679 0.75333077 1.8978449e-38
0.62282175 -0.26575258 0.75709796 1.8978449e-38
0.64775342 -0.26453727 0.75920945 1.8978449e-38
0.65519851 -0.26510301 0.75741321 1.8978449e-38
0.66307545 -0.26489246 0.75385207 1.8978449e-38
0.60851425 -0.25265345 0.75219399 1.8978449e-38
0.65508288 -0.25512218 0.75540704 1.8978449e-38
0.66348404 -0.25653327 0.75117171 1.8978449e-38
0.65348577 -0.24586803 0.75314045 1.8978449e-38
0.65146786 -0.23770972 0.7503503 1.8978449e-38
0.56252289 -0.18653348 0.7565738 1.8978449e-38
0.58747488 -0.1838492 0.75960934 1.8978449e-38
0.59476751 -0.18454403 0.75798821 1.8978449e-38
0.54947662 -0.171994 0.75053751 1.8978449e-38
0.55472946 -0.17508523 0.75542617 1.8978449e-38
0.57782185 -0.17241769 0.75949764 1.8978449e-38
0.58517724 -0.17488977 0.75841194 1.8978449e-38
0.59475821 -0.17518747 0.75619471 1.8978449e-38
0.54762936 -0.16434509 0.75340289 1.8978449e-38
0.55312407 -0.16409162 0.75812989 1.8978449e-38
0.56571424 -0.16276841 0.75926304 1.8978449e-38
0.57498497 -0.16462837 0.75822181 1.8978449e-38
0.58467156 -0.16507222 0.75645262 1.8978449e-38
0.59395403 -0.16595495 0.75352871 1.8978449e-38
0.54852521 -0.15586868 0.75194323 1.8978449e-38
0.55444336 -0.15468386 0.75609547 1.8978449e-38
0.56494731 -0.15522985 0.75749171 1.8978449e-38
0.57517105 -0.15478812 0.75520551 1.8978449e-38
0.584387 -0.15610099 0.75350982 1.8978449e-38
0.55625844 -0.14808063 0.75454396 1.8978449e-38
0.56493628 -0.14716989 0.75532568 1.8978449e-38
0.57392424 -0.14723559 0.75250703 1.8978449e-38
0.6599142 -0.28472382 0.76029724 1.8978449e-38
0.66208816 -0.28653291 0.76046956 1.8978449e-38
0.6426096 -0.2715708 0.76024282 1.8978449e-38
0.57888722 -0.2005966 0.76019895 1.8978449e-38
0.57555956 -0.19383785 0.76117384 1.8978449e-38
0.58504486 -0.19521511 0.76076829 1.8978449e-38
0.59152496 -0.19714804 0.7603367 1.8978449e-38
0.56645942 -0.18427865 0.7616365 1.8978449e-38
0.57478809 -0.18512197 0.76159245 1.8978449e-38
0.58320481 -0.18590155 0.76053917 1.8978449e-38
0.55833447 -0.17300875 0.76115358 1.8978449e-38
0.56489325 -0.17517939 0.76177746 1.8978449e-38
0.57423353 -0.17571653 0.7609477 1.8978449e-38
0.58078468 -0.17963168 0.76036692 1.8978449e-38
0.5568465 -0.16685757 0.76085681 1.8978449e-38
0.56416035 -0.16702878 0.76072156 1.8978449e-38
0.57064974 -0.16880195 0.76031846 1.8978449e-38
0.45326805 0.049827427 0.63764918 4.1477762e-39
0.45388457 0.055591851 0.63393235 4.1477762e-39
0.4575507 0.064336374 0.63381916 4.1477762e-39
0.46142089 0.069581755 0.634812 4.1477762e-39
0.46666566 0.072332546 0.63508904 4.1477762e-39
0.47519821 0.076990418 0.63508022 4.1477762e-39
0.48003989 0.079693094 0.63873291 4.1477762e-39
0.47983092 0.08005996 0.63062078 4.1477762e-39
0.48512951 0.083184592 0.63578278 4.1477762e-39
0.49265021 0.087936826 0.63591993 4.1477762e-39
0.49748725 0.091145508 0.63372719 4.1477762e-39
0.50445348 0.095398381 0.63523382 4.1477762e-39
0.51000684 0.098825946 0.63416779 4.1477762e-39
0.51592106 0.10211816 0.6353997 4.1477762e-39
0.52499712 0.10727601 0.63747191 4.1477762e-39
0.53101289 0.10988499 0.63371432 4.1477762e-39
0.53656983 0.11250789 0.63679296 4.1477762e-39
0.54270452 0.11523472 0.63908458 4.1477762e-39
0.44900727 0.054320782 0.6476649 4.1477762e-39
0.45435122 0.053336926 0.64395362 4.1477762e-39
0.46263328 0.051475655 0.64174622 4.1477762e-39
0.45575127 0.063940994 0.64555019 4.1477762e-39
0.46213326 0.068823166 0.64496386 4.1477762e-39
0.46764192 0.071856685 0.6451211 4.1477762e-39
0.47462261 0.075943239 0.64510131 4.1477762e-39
0.48034915 0.07947246 0.6438089 4.1477762e-39
0.48586932 0.082950249 0.64568782 4.1477762e-39
0.4933908 0.088064194 0.64441282 4.1477762e-39
0.49836197 0.091285236 0.64349294 4.1477762e-39
0.50496674 0.095536418 0.64452082 4.1477762e-39
0.51164049 0.099736333 0.64689434 4.1477762e-39
0.51608449 0.10231473 0.64399701 4.1477762e-39
0.52452445 0.10700882 0.64583039 4.1477762e-39
0.53372705 0.11172903 0.64492798 4.1477762e-39
0.54100382 0.11474001 0.64419603 4.1477762e-39
0.44925919 0.054277416 0.65419388 4.1477762e-39
0.45229128 0.058030784 0.65559024 4.1477762e-39
0.45667061 0.063466012 0.65448481 4.1477762e-39
0.46217024 0.067842796 0.65535796 4.1477762e-39
0.46793818 0.071684904 0.65489596 4.1477762e-39
0.47554979 0.076533176 0.6546483 4.1477762e-39
0.48534739 0.083491631 0.65511882 4.1477762e-39
0.49257848 0.087744489 0.65511739 4.1477762e-39
0.49820355 0.091431141 0.6546604 4.1477762e-39
0.50564456 0.096283346 0.65538269 4.1477762e-39
0.51025635 0.099269696 0.65300941 4.1477762e-39
0.51552594 0.10222802 0.65581298 4.1477762e-39
0.52480513 0.10721604 0.65489572 4.1477762e-39
0.51491761 0.1106992 0.65538365 4.1477762e-39
0.53449923 0.11217777 0.65363371 4.1477762e-39
0.54236126 0.11611647 0.65444404 4.1477762e-39
0.45644632 0.049263731 0.66562825 4.1477762e-39
0.46168709 0.049462549 0.66258889 4.1477762e-39
0.44979984 0.053552233 0.66345054 4.1477762e-39
0.4513109 0.054793134 0.666399 4.1477762e-39
0.45694003 0.062860951 0.66509187 4.1477762e-39
0.46293268 0.067735255 0.66499627 4.1477762e-39
0.46694714 0.07099773 0.66539448 4.1477762e-39
0.474713 0.076088019 0.66455823 4.1477762e-39
0.48456907 0.082608312 0.66496289 4.1477762e-39
0.49251038 0.087860495 0.6655829 4.1477762e-39
0.4974162 0.091021024 0.66390073 4.1477762e-39
0.50507295 0.095777705 0.66500407 4.1477762e-39
0.51540852 0.10215677 0.66528243 4.1477762e-39
0.52475399 0.10736649 0.66428995 4.1477762e-39
0.53445005 0.11252216 0.66514713 4.1477762e-39
0.5437606 0.11748445 0.66447288 4.1477762e-39
0.50592023 0.10152601 0.68747753 4.1477762e-39
0.4545567 0.04925647 0.69500494 4.1477762e-39
0.44999793 0.052732646 0.69441634 4.1477762e-39
0.45187268 0.055170901 0.695728 4.1477762e-39
0.45668921 0.06274341 0.69468737 4.1477762e-39
0.46217117 0.067801774 0.69506019 4.1477762e-39
0.46741641 0.071386583 0.6945045 4.1477762e-39
0.47460502 0.076133221 0.69502378 4.1477762e-39
0.48031971 0.079932541 0.69695365 4.1477762e-39
0.4849216 0.082882442 0.69446093 4.1477762e-39
0.49284491 0.088101424 0.69529134 4.1477762e-39
0.49807355 0.091458343 0.6941759 4.1477762e-39
0.5046289 0.095639423 0.69488937 4.1477762e-39
0.51120549 0.099707894 0.69604594 4.1477762e-39
0.51603943 0.10265242 0.69474059 4.1477762e-39
0.52480292 0.10767713 0.69490325 4.1477762e-39
0.52960271 0.11033014 0.69379431 4.1477762e-39
0.53462821 0.11288518 0.69368237 4.1477762e-39
0.5411225 0.11450713 0.69119108 4.1477762e-39
0.45471719 0.047456264 0.70407474 4.1477762e-39
0.45370072 0.055545453 0.70328677 4.1477762e-39
0.45564413 0.063299008 0.70480168 4.1477762e-39
0.46217889 0.068109021 0.70547009 4.1477762e-39
0.46761179 0.071699567 0.70437795 4.1477762e-39
0.47547781 0.076910652 0.70547819 4.1477762e-39
0.48551172 0.083514974 0.70467502 4.1477762e-39
0.49297705 0.088300169 0.7051689 4.1477762e-39
0.49793068 0.09147197 0.70480061 4.1477762e-39
0.50519609 0.095985413 0.70516473 4.1477762e-39
0.51029241 0.099164851 0.70356774 4.1477762e-39
0.52571672 0.097420648 0.70311749 4.1477762e-39
0.51582718 0.10247943 0.7047646 4.1477762e-39
0.52480978 0.10748778 0.70516431 4.1477762e-39
0.53495044 0.11305751 0.70424628 4.1477762e-39
0.54329872 0.11735296 0.70707524 4.1477762e-39
0.45456958 0.048523538 0.71422493 4.1477762e-39
0.46040243 0.048310749 0.71140862 4.1477762e-39
0.452409 0.055215191 0.71535575 4.1477762e-39
0.45585427 0.062909722 0.71473461 4.1477762e-39
0.46346822 0.068223178 0.71470827 4.1477762e-39
0.46813115 0.071274355 0.71483493 4.1477762e-39
0.47436678 0.075792886 0.71499503 4.1477762e-39
0.48462573 0.083133481 0.71524811 4.1477762e-39
0.49261525 0.08824794 0.71504509 4.1477762e-39
0.49754524 0.091234423 0.71446568 4.1477762e-39
0.50541133 0.09600576 0.71480387 4.1477762e-39
0.51174217 0.099849865 0.71761483 4.1477762e-39
0.5152576 0.10197145 0.71428603 4.1477762e-39
0.52378756 0.10686579 0.71510673 4.1477762e-39
0.52951479 0.11014687 0.71739864 4.1477762e-39
0.53490663 0.11325748 0.71456712 4.1477762e-39
0.54297537 0.11740035 0.71602696 4.1477762e-39
0.45461437 0.048567314 0.72440082 4.1477762e-39
0.4527337 0.054965179 0.72512621 4.1477762e-39
0.45636538 0.062490921 0.72496206 4.1477762e-39
0.46275941 0.067770965 0.72516805 4.1477762e-39
0.46836343 0.071383454 0.72577792 4.1477762e-39
0.47478172 0.07593257 0.72482753 4.1477762e-39
0.4804129 0.079857334 0.72774923 4.1477762e-39
0.48540598 0.083461039 0.72478199 4.1477762e-39
0.49370176 0.088685364 0.72501808 4.1477762e-39
0.49827313 0.091549665 0.7264263 4.1477762e-39
0.50447989 0.09547919 0.72449702 4.1477762e-39
0.51074719 0.099301256 0.72497237 4.1477762e-39
0.51664072 0.10266223 0.72516501 4.1477762e-39
0.52548069 0.10768165 0.72479844 4.1477762e-39
0.53507131 0.11305646 0.72477967 4.1477762e-39
0.5440588 0.11620984 0.72670913 4.1477762e-39
0.45473686 0.048428275 0.73370939 4.1477762e-39
0.46286231 0.047353648 0.73288184 4.1477762e-39
0.45339918 0.0545762 0.73566681 4.1477762e-39
0.46902502 0.051087137 0.73236895 4.1477762e-39
0.45775363 0.062728934 0.73551178 4.1477762e-39
0.46303332 0.067862839 0.73469085 4.1477762e-39
0.46804103 0.07113488 0.73442692 4.1477762e-39
0.47506395 0.075869881 0.73531789 4.1477762e-39
0.48036769 0.07955081 0.73380286 4.1477762e-39
0.48537958 0.083188109 0.73458439 4.1477762e-39
0.49248946 0.08803948 0.73504019 4.1477762e-39
0.49752045 0.091211148 0.73539299 4.1477762e-39
0.50530231 0.095996268 0.73488981 4.1477762e-39
0.51180911 0.099916525 0.73902994 4.1477762e-39
0.51550603 0.10196505 0.7342605 4.1477762e-39
0.52411211 0.10682178 0.73506099 4.1477762e-39
0.53285152 0.10128367 0.73984194 4.1477762e-39
0.5323649 0.11139183 0.7341091 4.1477762e-39
0.45567489 0.048768606 0.74620771 4.1477762e-39
0.45537961 0.054597836 0.74380243 4.1477762e-39
0.45842105 0.063252896 0.74461263 4.1477762e-39
0.46404561 0.068274543 0.74526906 4.1477762e-39
0.46837431 0.071175881 0.74344087 4.1477762e-39
0.47498637 0.075812623 0.7453624 4.1477762e-39
0.48450884 0.082860708 0.74520606 4.1477762e-39
0.49262297 0.087884746 0.74500775 4.1477762e-39
0.49783051 0.091171913 0.74437428 4.1477762e-39
0.50510472 0.095528618 0.74497491 4.1477762e-39
0.51154137 0.099487856 0.74520284 4.1477762e-39
0.51666987 0.10265312 0.74490964 4.1477762e-39
0.5256418 0.10785823 0.74482894 4.1477762e-39
0.5343734 0.11276551 0.74564344 4.1477762e-39
0.54319811 0.1175264 0.74824303 4.1477762e-39
0.4539845 0.049118765 0.7579267 4.1477762e-39
0.45251593 0.054578796 0.75594264 4.1477762e-39
0.45727199 0.063061781 0.75488442 4.1477762e-39
0.46378443 0.06787762 0.75505835 4.1477762e-39
0.46842346 0.070998184 0.75385976 4.1477762e-39
0.47480884 0.075475566 0.7551648 4.1477762e-39
0.4812474 0.079878561 0.75598764 4.1477762e-39
0.48527804 0.082690559 0.75474173 4.1477762e-39
0.49324942 0.087653466 0.75501221 4.1477762e-39
0.49835894 0.090791367 0.75523484 4.1477762e-39
0.50472564 0.09468098 0.75545013 4.1477762e-39
0.51147777 0.098866552 0.754498 4.1477762e-39
0.51684719 0.10213058 0.75462538 4.1477762e-39
0.52509552 0.10709882 0.75469631 4.1477762e-39
0.53436226 0.11283476 0.75553602 4.1477762e-39
0.54327095 0.11798034 0.75466681 4.1477762e-39
0.45584929 0.047405295 0.76439238 4.1477762e-39
0.46112612 0.046158191 0.76658696 4.1477762e-39
0.45241365 0.054934923 0.76553792 4.1477762e-39
0.45668358 0.062524118 0.76505309 4.1477762e-39
0.46347699 0.067546554 0.76524323 4.1477762e-39
0.46852002 0.070992768 0.76572049 4.1477762e-39
0.47525588 0.075424954 0.76536709 4.1477762e-39
0.48135203 0.07942351 0.76494086 4.1477762e-39
0.48627624 0.082569592 0.76508999 4.1477762e-39
0.49332973 0.087074839 0.76512343 4.1477762e-39
0.49833518 0.090242043 0.76434159 4.1477762e-39
0.50444663 0.09407527 0.7652396 4.1477762e-39
0.51221317 0.098941393 0.76490217 4.1477762e-39
0.51747614 0.10216591 0.7651549 4.1477762e-39
0.52567232 0.10722531 0.76529592 4.1477762e-39
0.53491491 0.1129005 0.76545423 4.1477762e-39
0.54196274 0.11718209 0.76499832 4.1477762e-39
0.45363915 0.048570544 0.77520686 4.1477762e-39
0.45457157 0.054568857 0.77485085 4.1477762e-39
0.45740265 0.061966568 0.77478927 4.1477762e-39
0.46429175 0.0667134 0.77587664 4.1477762e-39
0.46865392 0.070124269 0.77395558 4.1477762e-39
0.47514832 0.074430615 0.77477771 4.1477762e-39
0.48333421 0.079146072 0.77466041 4.1477762e-39
0.4859629 0.08180587 0.77510399 4.1477762e-39
0.49408099 0.087137885 0.77479905 4.1477762e-39
0.49975616 0.090896569 0.77812445 4.1477762e-39
0.50496167 0.094241105 0.77498531 4.1477762e-39
0.5118233 0.09851975 0.77428275 4.1477762e-39
0.51651877 0.1013964 0.77520639 4.1477762e-39
0.52487904 0.10631669 0.7751255 4.1477762e-39
0.53550458 0.11234696 0.77466094 4.1477762e-39
0.54274964 0.11653968 0.77480912 4.1477762e-39
0.45665577 0.048035886 0.78356695 4.1477762e-39
0.46211594 0.048218083 0.7868486 4.1477762e-39
0.45577541 0.05574663 0.78516471 4.1477762e-39
0.45947632 0.061381981 0.78073847 4.1477762e-39
0.46416983 0.065336011 0.78480846 4.1477762e-39
0.46977007 0.070855126 0.78895462 4.1477762e-39
0.47467208 0.07411325 0.78511488 4.1477762e-39
0.48190576 0.078982033 0.78542393 4.1477762e-39
0.48716751 0.082464449 0.78512794 4.1477762e-39
0.49439505 0.087285891 0.78478003 4.1477762e-39
0.49918538 0.090414017 0.7853719 4.1477762e-39
0.50544792 0.094310857 0.78532368 4.1477762e-39
0.51304924 0.098381087 0.78572637 4.1477762e-39
0.51760209 0.10184497 0.7851038 4.1477762e-39
0.52473408 0.10616583 0.78519523 4.1477762e-39
0.53075564 0.10964216 0.78461063 4.1477762e-39
0.53516036 0.1121439 0.78468597 4.1477762e-39
0.54179025 0.1157858 0.78390121 4.1477762e-39
0.53329885 0.12013629 0.78152955 4.1477762e-39
0.45755389 0.04846229 0.79704839 4.1477762e-39
0.4617486 0.047058307 0.79617959 4.1477762e-39
0.45543697 0.054999188 0.79452413 4.1477762e-39
0.45994765 0.060984805 0.79209983 4.1477762e-39
0.46430525 0.065358177 0.79498786 4.1477762e-39
0.46974054 0.070608377 0.79437369 4.1477762e-39
0.47491029 0.07398919 0.79566336 4.1477762e-39
0.48129946 0.078471422 0.79501635 4.1477762e-39
0.4868975 0.082237191 0.79515541 4.1477762e-39
0.49483785 0.087314509 0.79513043 4.1477762e-39
0.49912047 0.090073377 0.79085076 4.1477762e-39
0.50459236 0.093596026 0.79547757 4.1477762e-39
0.51202923 0.098325305 0.7946353 4.1477762e-39
0.51701397 0.1014405 0.79518008 4.1477762e-39
0.52490634 0.10626207 0.79510069 4.1477762e-39
0.53516775 0.11205166 0.79334372 4.1477762e-39
0.54378533 0.11580394 0.79295701 4.1477762e-39
0.456559 0.048899345 0.80572635 4.1477762e-39
0.46110484 0.046611484 0.80514127 4.1477762e-39
0.45640659 0.054589033 0.80531156 4.1477762e-39
0.48032662 0.059263248 0.80644882 4.1477762e-39
0.45862269 0.061141249 0.80675077 4.1477762e-39
0.46488672 0.065303855 0.80684251 4.1477762e-39
0.4704417 0.068650879 0.80933857 4.1477762e-39
0.4864026 0.064929888 0.8086831 4.1477762e-39
0.49314618 0.068177566 0.80779332 4.1477762e-39
0.47493035 0.072697617 0.80560595 4.1477762e-39
0.4827908 0.077218458 0.8067652 4.1477762e-39
0.49307495 0.071046188 0.80975014 4.1477762e-39
0.50482678 0.074407868 0.80835468 4.1477762e-39
0.5115748 0.078887552 0.80779564 4.1477762e-39
0.48694655 0.081269987 0.80514002 4.1477762e-39
0.49460262 0.085568503 0.80636406 4.1477762e-39
0.50194925 0.08869765 0.80894178 4.1477762e-39
0.51654899 0.084127113 0.80833513 4.1477762e-39
0.52421242 0.087809458 0.80740815 4.1477762e-39
0.50540137 0.092861168 0.80591542 4.1477762e-39
0.5135209 0.09750884 0.80665213 4.1477762e-39
0.52489054 0.091507144 0.8092885 4.1477762e-39
0.53484958 0.095880508 0.80744219 4.1477762e-39
0.54127872 0.098227218 0.80676323 4.1477762e-39
0.51735061 0.10078648 0.80370528 4.1477762e-39
0.52530986 0.10451744 0.80494779 4.1477762e-39
0.53405559 0.10758586 0.80631697 4.1477762e-39
0.54474539 0.10272226 0.8088299 4.1477762e-39
0.55109876 0.10655323 0.80968314 4.1477762e-39
0.53757232 0.1127053 0.80436528 4.1477762e-39
0.5425992 0.1144339 0.80636442 4.1477762e-39
0.55163229 0.11427556 0.80703241 4.1477762e-39
0.45934841 0.049443498 0.8115871 4.1477762e-39
0.46195924 0.049323972 0.8106817 4.1477762e-39
0.45895401 0.054623816 0.81230611 4.1477762e-39
0.46418485 0.056102514 0.81335646 4.1477762e-39
0.47126019 0.058451254 0.81385201 4.1477762e-39
0.46642083 0.062131789 0.81100351 4.1477762e-39
0.47422081 0.065060787 0.81271851 4.1477762e-39
0.48274037 0.06665644 0.81222415 4.1477762e-39
0.47764087 0.07130333 0.81217933 4.1477762e-39
0.48524502 0.074431367 0.81220484 4.1477762e-39
0.49480867 0.07584925 0.81334466 4.1477762e-39
0.5032202 0.077540822 0.8133226 4.1477762e-39
0.47945893 0.086412482 0.81193542 4.1477762e-39
0.49643975 0.08201354 0.81264538 4.1477762e-39
0.50469965 0.085610919 0.81355762 4.1477762e-39
0.51281661 0.087317809 0.81229383 4.1477762e-39
0.53172696 0.08478792 0.81024933 4.1477762e-39
0.50875849 0.091173127 0.81104106 4.1477762e-39
0.51518488 0.09425211 0.81223601 4.1477762e-39
0.52416927 0.096671328 0.81160539 4.1477762e-39
0.5316987 0.098646268 0.81103551 4.1477762e-39
0.52684432 0.10163376 0.81278962 4.1477762e-39
0.53535968 0.10528057 0.81226766 4.1477762e-39
0.54415232 0.10710055 0.81164533 4.1477762e-39
0.55151248 0.10841069 0.81062365 4.1477762e-39
0.54519629 0.11178417 0.81185788 4.1477762e-39
0.70659065 -0.064316317 0.63473994 5.2279629e-39
0.69814259 -0.052257176 0.63499671 5.2279629e-39
0.70203805 -0.057790041 0.63547307 5.2279629e-39
0.69320881 -0.044888332 0.63498974 5.2279629e-39
0.68674016 -0.035283241 0.63491678 5.2279629e-39
0.67804432 -0.022261254 0.63515317 5.2279629e-39
0.68177974 -0.027821636 0.63502681 5.2279629e-39
0.67272967 -0.014705562 0.6350258 5.2279629e-39
0.66568905 -0.00479209 0.63480192 5.2279629e-39
0.65780115 0.0068735005 0.63524497 5.2279629e-39
0.66080177 0.0025064333 0.63506281 5.2279629e-39
0.6491127 0.018991975 0.63427651 5.2279629e-39
0.6531285 0.013802938 0.6351825 5.2279629e-39
0.64520431 0.025318682 0.63477737 5.2279629e-39
0.6386373 0.036908466 0.63520819 5.2279629e-39
0.640935 0.032638844 0.63532996 5.2279629e-39
0.63786501 0.041297764 0.6354326 5.2279629e-39
0.64426202 0.046670187 0.63485175 5.2279629e-39
0.64958674 0.05117872 0.6353454 5.2279629e-39
0.65491158 0.055498149 0.63473666 5.2279629e-39
0.66556484 0.063414954 0.63559049 5.2279629e-39
0.67289388 0.068779618 0.63555145 5.2279629e-39
0.67774278 0.072275348 0.63504332 5.2279629e-39
0.68062586 0.073559165 0.63585848 5.2279629e-39
0.70731962 -0.063786767 0.64505816 5.2279629e-39
0.71116275 -0.066352852 0.6483106 5.2279629e-39
0.69860244 -0.052471787 0.64479643 5.2279629e-39
0.70236421 -0.057427403 0.6456545 5.2279629e-39
0.69326943 -0.044797596 0.64534098 5.2279629e-39
0.68661505 -0.035066955 0.64516318 5.2279629e-39
0.677944 -0.0225391 0.64556098 5.2279629e-39
0.6816774 -0.027902355 0.64424938 5.2279629e-39
0.66978204 -0.010973638 0.6457724 5.2279629e-39
0.6729061 -0.015354878 0.64520776 5.2279629e-39
0.66550481 -0.0048025083 0.64467835 5.2279629e-39
0.65787995 0.0062184324 0.64514107 5.2279629e-39
0.66105115 0.0016248957 0.6449548 5.2279629e-39
0.64931035 0.018664913 0.64534914 5.2279629e-39
0.65275127 0.01360724 0.64529204 5.2279629e-39
0.64498001 0.025497735 0.6447742 5.2279629e-39
0.63804346 0.036789969 0.64593041 5.2279629e-39
0.6420514 0.032449301 0.6447534 5.2279629e-39
0.63851267 0.04105166 0.64376628 5.2279629e-39
0.64403778 0.04567777 0.64526403 5.2279629e-39
0.64937311 0.051003587 0.64367419 5.2279629e-39
0.65479493 0.055243209 0.64528084 5.2279629e-39
0.66114867 0.059991691 0.64884579 5.2279629e-39
0.66484374 0.06259422 0.64422053 5.2279629e-39
0.67421389 0.068052731 0.64571011 5.2279629e-39
0.67901063 0.071476229 0.64215368 5.2279629e-39
0.68349862 0.072707422 0.6461007 5.2279629e-39
0.70811689 -0.061241806 0.65537339 5.2279629e-39
0.71306533 -0.065365352 0.65258694 5.2279629e-39
0.69820648 -0.052027259 0.65506297 5.2279629e-39
0.70352793 -0.057170566 0.65473694 5.2279629e-39
0.69348645 -0.044895072 0.65479434 5.2279629e-39
0.6862886 -0.034381591 0.65479809 5.2279629e-39
0.69021499 -0.039916784 0.65776408 5.2279629e-39
0.67810488 -0.023438917 0.65509713 5.2279629e-39
0.68142444 -0.027903927 0.65467131 5.2279629e-39
0.66925907 -0.010765045 0.65430212 5.2279629e-39
0.67299092 -0.01615838 0.65544719 5.2279629e-39
0.665277 -0.00502672 0.65478307 5.2279629e-39
0.65766245 0.006077989 0.65485942 5.2279629e-39
0.66105533 0.0010769193 0.65581876 5.2279629e-39
0.64898527 0.01851292 0.65474135 5.2279629e-39
0.65275657 0.01313264 0.65514809 5.2279629e-39
0.64416945 0.025469266 0.65500331 5.2279629e-39
0.63823545 0.035373379 0.6550498 5.2279629e-39
0.64010608 0.031535648 0.65311158 5.2279629e-39
0.64451253 0.044348653 0.65486944 5.2279629e-39
0.65378058 0.054070469 0.65470892 5.2279629e-39
0.66082317 0.059831601 0.65450007 5.2279629e-39
0.66543138 0.062879503 0.65548921 5.2279629e-39
0.67546624 0.067628935 0.65339106 5.2279629e-39
0.68559641 0.072272912 0.65221763 5.2279629e-39
0.70623446 -0.063448593 0.66717249 5.2279629e-39
0.71447539 -0.068070613 0.66371417 5.2279629e-39
0.69767505 -0.052644581 0.66535968 5.2279629e-39
0.70131004 -0.05737653 0.66625953 5.2279629e-39
0.6931138 -0.045107231 0.66511762 5.2279629e-39
0.68580914 -0.034704957 0.66531187 5.2279629e-39
0.67768627 -0.023121184 0.66470033 5.2279629e-39
0.68085527 -0.02764572 0.66518068 5.2279629e-39
0.66905081 -0.010847777 0.66577166 5.2279629e-39
0.67274052 -0.016119227 0.66486776 5.2279629e-39
0.6651088 -0.0049684811 0.66499227 5.2279629e-39
0.6573897 0.0063188542 0.66487747 5.2279629e-39
0.66101819 0.0010340544 0.66474319 5.2279629e-39
0.64856583 0.01866251 0.66493642 5.2279629e-39
0.65240574 0.013322793 0.6652534 5.2279629e-39
0.64384919 0.025800982 0.66561234 5.2279629e-39
0.63843298 0.036076091 0.66486812 5.2279629e-39
0.64071363 0.033153664 0.66791409 5.2279629e-39
0.63892555 0.040872406 0.66624856 5.2279629e-39
0.64486617 0.045928165 0.66426373 5.2279629e-39
0.6496166 0.051392574 0.66708732 5.2279629e-39
0.65469998 0.055367786 0.66463572 5.2279629e-39
0.66037947 0.059596151 0.66285342 5.2279629e-39
0.66534984 0.063184306 0.66516227 5.2279629e-39
0.6724838 0.067811705 0.66514951 5.2279629e-39
0.67766428 0.070657142 0.66472322 5.2279629e-39
0.68229234 0.072476067 0.66589469 5.2279629e-39
0.70792669 -0.063111089 0.67357123 5.2279629e-39
0.71230245 -0.067021042 0.67524189 5.2279629e-39
0.69787061 -0.052152969 0.67406535 5.2279629e-39
0.70301521 -0.057718851 0.67416328 5.2279629e-39
0.68979526 -0.040874466 0.67632377 5.2279629e-39
0.69305062 -0.045427293 0.67484981 5.2279629e-39
0.68583155 -0.035166811 0.67502141 5.2279629e-39
0.67766625 -0.023491429 0.67520314 5.2279629e-39
0.6813361 -0.028759973 0.67583007 5.2279629e-39
0.65933579 -0.013836982 0.67329067 5.2279629e-39
0.66915578 -0.011293826 0.67463952 5.2279629e-39
0.67276168 -0.016500188 0.67515105 5.2279629e-39
0.66485196 -0.0049716476 0.67472512 5.2279629e-39
0.65723836 0.0062618596 0.67509913 5.2279629e-39
0.66070402 0.001958634 0.6742447 5.2279629e-39
0.64854711 0.018562805 0.67472041 5.2279629e-39
0.65225416 0.013506996 0.6749981 5.2279629e-39
0.64408231 0.025132963 0.67538041 5.2279629e-39
0.63917911 0.036477149 0.67721868 5.2279629e-39
0.64163476 0.03594467 0.67389989 5.2279629e-39
0.6394425 0.043061677 0.67340511 5.2279629e-39
0.64287198 0.04521874 0.67710364 5.2279629e-39
0.64789528 0.050972134 0.67512673 5.2279629e-39
0.65603876 0.056551028 0.67539811 5.2279629e-39
0.6658693 0.06378869 0.67490506 5.2279629e-39
