# .PCD v0.7 - Point Cloud Data file format
VERSION 0.7
FIELDS x y z rgb
SIZE 4 4 4 4
TYPE F F F F
COUNT 1 1 1 1
WIDTH 1004
HEIGHT 1
VIEWPOINT 0 0 0 1 0 0 0
POINTS 1004
DATA ascii
0.43835631 -0.38335806 0.71477044 1.8127865e-38
0.44023797 -0.38701242 0.71856159 1.8127865e-38
0.43335158 -0.37477836 0.71516114 1.8127865e-38
0.42744237 -0.36402822 0.71507317 1.8127865e-38
0.43062729 -0.36933428 0.71120924 1.8127865e-38
0.42290106 -0.35538462 0.71572429 1.8127865e-38
0.43196023 -0.3524816 0.71390259 1.8127865e-38
0.4172971 -0.34453589 0.71524757 1.8127865e-38
0.42012835 -0.34993571 0.71437758 1.8127865e-38
0.41230795 -0.33480784 0.71468693 1.8127865e-38
0.40725276 -0.32493296 0.71504265 1.8127865e-38
0.3988767 -0.31015366 0.71019584 1.8127865e-38
0.40247306 -0.31475082 0.71543151 1.8127865e-38
0.39830309 -0.30403495 0.71503443 1.8127865e-38
0.40035072 -0.30927545 0.71618474 1.8127865e-38
0.39616373 -0.29443645 0.71487272 1.8127865e-38
0.39869311 -0.28932849 0.71836853 1.8127865e-38
0.40504172 -0.28552017 0.7146827 1.8127865e-38
0.41124946 -0.2808792 0.71366686 1.8127865e-38
0.41615361 -0.27755535 0.714903 1.8127865e-38
0.42487803 -0.27265942 0.71455675 1.8127865e-38
0.43419898 -0.2674928 0.71544439 1.8127865e-38
0.44923219 -0.40227756 0.72451103 1.8127865e-38
0.45040923 -0.40458655 0.72884381 1.8127865e-38
0.4376542 -0.3989265 0.72053057 1.8127865e-38
0.44504765 -0.39559981 0.7252748 1.8127865e-38
0.43744454 -0.38326177 0.72553682 1.8127865e-38
0.44106999 -0.389002 0.72345543 1.8127865e-38
0.43259728 -0.3747344 0.72554332 1.8127865e-38
0.44089726 -0.37677026 0.7211408 1.8127865e-38
0.42748201 -0.36485413 0.72415751 1.8127865e-38
0.41996068 -0.35045344 0.724666 1.8127865e-38
0.42252314 -0.3554728 0.72527808 1.8127865e-38
0.41726112 -0.34519798 0.72532189 1.8127865e-38
0.40969455 -0.33041182 0.72531521 1.8127865e-38
0.41237277 -0.33560592 0.72463238 1.8127865e-38
0.40694863 -0.32495144 0.72465938 1.8127865e-38
0.40285665 -0.31492734 0.72470081 1.8127865e-38
0.39900678 -0.30341741 0.72437531 1.8127865e-38
0.40061074 -0.3081401 0.72397137 1.8127865e-38
0.38869503 -0.2945174 0.72747231 1.8127865e-38
0.39610687 -0.29415292 0.72440016 1.8127865e-38
0.39785841 -0.28870589 0.72568434 1.8127865e-38
0.40504116 -0.28432295 0.72462672 1.8127865e-38
0.41101316 -0.28076553 0.72466016 1.8127865e-38
0.41607526 -0.27777702 0.72449821 1.8127865e-38
0.425073 -0.27264345 0.72487098 1.8127865e-38
0.42999923 -0.26980525 0.72346717 1.8127865e-38
0.43427932 -0.26748759 0.72555333 1.8127865e-38
0.45323861 -0.41010565 0.7390939 1.8127865e-38
0.4487794 -0.40252686 0.73609543 1.8127865e-38
0.45182854 -0.40735412 0.73398018 1.8127865e-38
0.44408742 -0.39477959 0.7354939 1.8127865e-38
0.43727726 -0.38361001 0.73522937 1.8127865e-38
0.44038129 -0.38860974 0.733055 1.8127865e-38
0.42972186 -0.37061635 0.73733699 1.8127865e-38
0.43255514 -0.37544793 0.73488289 1.8127865e-38
0.42687625 -0.36498848 0.73478729 1.8127865e-38
0.4195728 -0.35050619 0.73389751 1.8127865e-38
0.42194906 -0.3553718 0.73498291 1.8127865e-38
0.41686827 -0.34516284 0.73543733 1.8127865e-38
0.40976706 -0.33109182 0.73548037 1.8127865e-38
0.41245684 -0.33632734 0.73488671 1.8127865e-38
0.40649709 -0.32460937 0.73489761 1.8127865e-38
0.39965838 -0.31033605 0.73587227 1.8127865e-38
0.40215167 -0.31557056 0.73482853 1.8127865e-38
0.39774022 -0.30456734 0.734667 1.8127865e-38
0.39596227 -0.29266238 0.7356261 1.8127865e-38
0.39887711 -0.28889152 0.73337501 1.8127865e-38
0.40444759 -0.28506196 0.73517394 1.8127865e-38
0.41138321 -0.2807408 0.73488361 1.8127865e-38
0.41648486 -0.27781615 0.73488867 1.8127865e-38
0.42484611 -0.27326047 0.73510242 1.8127865e-38
0.43148023 -0.27084491 0.73789072 1.8127865e-38
0.43585572 -0.26819766 0.7347697 1.8127865e-38
0.44156986 -0.26670504 0.73727965 1.8127865e-38
0.45485839 -0.41327718 0.74502492 1.8127865e-38
0.44800958 -0.40222511 0.74673611 1.8127865e-38
0.45127675 -0.40747485 0.745502 1.8127865e-38
0.44356817 -0.39471459 0.74541318 1.8127865e-38
0.43722802 -0.38386327 0.74489713 1.8127865e-38
0.44033858 -0.38906789 0.74271595 1.8127865e-38
0.42962909 -0.37037665 0.74347752 1.8127865e-38
0.43266308 -0.3755964 0.74518496 1.8127865e-38
0.42663348 -0.36478662 0.74503767 1.8127865e-38
0.41949701 -0.35056171 0.7432797 1.8127865e-38
0.42205745 -0.35572365 0.74504888 1.8127865e-38
0.4166691 -0.34474018 0.74494976 1.8127865e-38
0.4093442 -0.33074656 0.74665087 1.8127865e-38
0.41189894 -0.33552 0.74495119 1.8127865e-38
0.40654388 -0.32525817 0.7449342 1.8127865e-38
0.39922905 -0.31150922 0.74510002 1.8127865e-38
0.40197259 -0.31662968 0.74507755 1.8127865e-38
0.3958073 -0.30507657 0.74565166 1.8127865e-38
0.39609784 -0.2946918 0.74460852 1.8127865e-38
0.40076929 -0.29057288 0.74617934 1.8127865e-38
0.40534917 -0.28574172 0.744955 1.8127865e-38
0.41111726 -0.28075045 0.74572182 1.8127865e-38
0.41607371 -0.27800092 0.74516827 1.8127865e-38
0.42479399 -0.27406561 0.74524432 1.8127865e-38
0.43270701 -0.27104336 0.74511826 1.8127865e-38
0.43803045 -0.26908952 0.74498433 1.8127865e-38
0.44243503 -0.26747677 0.74449933 1.8127865e-38
0.46140361 -0.42263907 0.75438863 1.8127865e-38
0.45602098 -0.41535959 0.75542456 1.8127865e-38
0.44823489 -0.40304181 0.75536209 1.8127865e-38
0.45123279 -0.40786105 0.75491714 1.8127865e-38
0.44343209 -0.39523819 0.75498229 1.8127865e-38
0.4545503 -0.3993499 0.75410098 1.8127865e-38
0.43710193 -0.38452497 0.75459915 1.8127865e-38
0.44218031 -0.38008443 0.75039619 1.8127865e-38
0.43191993 -0.37443447 0.75505579 1.8127865e-38
0.42693684 -0.36475211 0.75480622 1.8127865e-38
0.41959777 -0.35047174 0.75497502 1.8127865e-38
0.4222098 -0.35553628 0.75436074 1.8127865e-38
0.41696408 -0.34533596 0.75483787 1.8127865e-38
0.40922469 -0.33089846 0.75514811 1.8127865e-38
0.41265413 -0.33650237 0.75529706 1.8127865e-38
0.40613887 -0.32501233 0.75495416 1.8127865e-38
0.39840943 -0.31215078 0.75528014 1.8127865e-38
0.40190116 -0.31693718 0.75496155 1.8127865e-38
0.39631298 -0.30469367 0.75549018 1.8127865e-38
0.39496976 -0.29525328 0.75521052 1.8127865e-38
0.40103251 -0.29065084 0.75054616 1.8127865e-38
0.39850006 -0.28936496 0.75782615 1.8127865e-38
0.40540734 -0.28585079 0.75430727 1.8127865e-38
0.41139093 -0.28118491 0.75408047 1.8127865e-38
0.41631034 -0.27796644 0.7548489 1.8127865e-38
0.42489988 -0.27436781 0.75493264 1.8127865e-38
0.43282038 -0.27119744 0.75491285 1.8127865e-38
0.43776792 -0.26921588 0.75523895 1.8127865e-38
0.44176453 -0.26770306 0.75417972 1.8127865e-38
0.45355597 -0.41197848 0.76575524 1.8127865e-38
0.44751525 -0.40358666 0.76544416 1.8127865e-38
0.45134544 -0.40839332 0.76394653 1.8127865e-38
0.44312099 -0.39524683 0.76502115 1.8127865e-38
0.4370181 -0.38511816 0.76477611 1.8127865e-38
0.4296762 -0.371142 0.7667436 1.8127865e-38
0.43222556 -0.37625137 0.76473397 1.8127865e-38
0.42686713 -0.36517823 0.76496601 1.8127865e-38
0.41960064 -0.35111246 0.76426631 1.8127865e-38
0.4222829 -0.35625705 0.76461476 1.8127865e-38
0.41639227 -0.34507206 0.76517761 1.8127865e-38
0.40926233 -0.33160439 0.7651971 1.8127865e-38
0.41196147 -0.33672705 0.76531649 1.8127865e-38
0.40572441 -0.32476127 0.76514369 1.8127865e-38
0.39924049 -0.31164616 0.76546133 1.8127865e-38
0.40152737 -0.31662476 0.76513952 1.8127865e-38
0.39723217 -0.30481458 0.76464826 1.8127865e-38
0.39490673 -0.29407856 0.76507026 1.8127865e-38
0.39711368 -0.28826797 0.76572889 1.8127865e-38
0.40513951 -0.28412214 0.76487505 1.8127865e-38
0.41121837 -0.28060585 0.7648502 1.8127865e-38
0.41588095 -0.27813825 0.76495403 1.8127865e-38
0.42485973 -0.27409819 0.76526266 1.8127865e-38
0.43234205 -0.27097324 0.76451957 1.8127865e-38
0.43723142 -0.26892051 0.76550436 1.8127865e-38
0.44134885 -0.26733136 0.76463068 1.8127865e-38
0.4590303 -0.42149243 0.77469331 1.8127865e-38
0.46030539 -0.42383444 0.7785151 1.8127865e-38
0.45528316 -0.41548452 0.77495408 1.8127865e-38
0.44737703 -0.40280223 0.77543736 1.8127865e-38
0.45095658 -0.40842372 0.77352524 1.8127865e-38
0.44248751 -0.39442995 0.77533346 1.8127865e-38
0.43687478 -0.38459569 0.77463108 1.8127865e-38
0.4293673 -0.37083429 0.77512467 1.8127865e-38
0.43198091 -0.3757641 0.77485019 1.8127865e-38
0.42635438 -0.36489385 0.77511144 1.8127865e-38
0.41935664 -0.35148829 0.77527267 1.8127865e-38
0.42180824 -0.35616449 0.77490121 1.8127865e-38
0.41585448 -0.34478265 0.77509427 1.8127865e-38
0.40887827 -0.33127064 0.77487457 1.8127865e-38
0.41141877 -0.33622357 0.77521342 1.8127865e-38
0.4054924 -0.32467905 0.77494633 1.8127865e-38
0.39932352 -0.31196436 0.77394831 1.8127865e-38
0.40159065 -0.31706372 0.77506429 1.8127865e-38
0.39699027 -0.30494687 0.77437848 1.8127865e-38
0.39460969 -0.29336071 0.774966 1.8127865e-38
0.39837718 -0.28886062 0.77492857 1.8127865e-38
0.40491521 -0.28452915 0.77495474 1.8127865e-38
0.41101956 -0.28065497 0.7754429 1.8127865e-38
0.41594404 -0.27813524 0.77524841 1.8127865e-38
0.42485446 -0.27415937 0.77522206 1.8127865e-38
0.43208212 -0.27097115 0.77525312 1.8127865e-38
0.43704998 -0.26878989 0.77528274 1.8127865e-38
0.44120783 -0.26699358 0.77540398 1.8127865e-38
0.45789751 -0.42072821 0.78505635 1.8127865e-38
0.46121541 -0.42489552 0.78497672 1.8127865e-38
0.45400825 -0.41434312 0.78495252 1.8127865e-38
0.44744369 -0.40361795 0.78502846 1.8127865e-38
0.45071808 -0.40881062 0.78383279 1.8127865e-38
0.43993878 -0.39039212 0.78557158 1.8127865e-38
0.44280264 -0.3955307 0.78528875 1.8127865e-38
0.43690765 -0.38490337 0.78458428 1.8127865e-38
0.4293859 -0.37129253 0.78510833 1.8127865e-38
0.43192807 -0.37603408 0.78522623 1.8127865e-38
0.42605439 -0.36495039 0.7850672 1.8127865e-38
0.41930085 -0.35189086 0.78474927 1.8127865e-38
0.42179474 -0.35671332 0.78507239 1.8127865e-38
0.41577187 -0.34504122 0.78483146 1.8127865e-38
0.40895644 -0.33176064 0.78419167 1.8127865e-38
0.41161785 -0.33698404 0.78537232 1.8127865e-38
0.40559629 -0.32525334 0.78484136 1.8127865e-38
0.39890069 -0.31209031 0.7841742 1.8127865e-38
0.40184328 -0.31753123 0.78557467 1.8127865e-38
0.39547619 -0.3055402 0.78526562 1.8127865e-38
0.39459655 -0.29348466 0.78535891 1.8127865e-38
0.40523973 -0.29150906 0.78740078 1.8127865e-38
0.39877006 -0.28915396 0.78507024 1.8127865e-38
0.40487653 -0.28467235 0.78523266 1.8127865e-38
0.41148528 -0.28061867 0.78604227 1.8127865e-38
0.41638821 -0.27854013 0.78487444 1.8127865e-38
0.42492774 -0.27511245 0.78489178 1.8127865e-38
0.43367231 -0.27156419 0.78507662 1.8127865e-38
0.43864471 -0.26937151 0.78408253 1.8127865e-38
0.4415493 -0.26820877 0.78463364 1.8127865e-38
0.45352879 -0.41471511 0.79459137 1.8127865e-38
0.44737414 -0.40417635 0.79490173 1.8127865e-38
0.45038301 -0.4095135 0.79622591 1.8127865e-38
0.43951812 -0.3906585 0.79593873 1.8127865e-38
0.44223824 -0.39529201 0.79504037 1.8127865e-38
0.43625516 -0.38487095 0.79474819 1.8127865e-38
0.42920893 -0.37170443 0.79498017 1.8127865e-38
0.43179819 -0.37674886 0.79557902 1.8127865e-38
0.42568997 -0.36486846 0.79477566 1.8127865e-38
0.41819644 -0.3527205 0.79463494 1.8127865e-38
0.42173019 -0.35717967 0.79466033 1.8127865e-38
0.41556615 -0.34533319 0.79459178 1.8127865e-38
0.40866977 -0.33208773 0.79508442 1.8127865e-38
0.41126227 -0.3371931 0.79566735 1.8127865e-38
0.40519118 -0.32521999 0.79466695 1.8127865e-38
0.39863697 -0.31243101 0.79495573 1.8127865e-38
0.40117455 -0.31738219 0.79523295 1.8127865e-38
0.39490217 -0.30520499 0.7945962 1.8127865e-38
0.3949112 -0.29436564 0.7952081 1.8127865e-38
0.39968729 -0.28963912 0.79384339 1.8127865e-38
0.40453312 -0.28543204 0.79512948 1.8127865e-38
0.41189876 -0.28076288 0.79521036 1.8127865e-38
0.43527478 -0.2826145 0.79419124 1.8127865e-38
0.41674843 -0.27878931 0.79472619 1.8127865e-38
0.42475778 -0.2753709 0.79489279 1.8127865e-38
0.43360439 -0.27168357 0.79307985 1.8127865e-38
0.44149646 -0.26877502 0.79256666 1.8127865e-38
0.45707369 -0.42144516 0.8075549 1.8127865e-38
0.45317417 -0.41470811 0.80478573 1.8127865e-38
0.44733649 -0.40466884 0.80511844 1.8127865e-38
0.45005333 -0.4093622 0.80411834 1.8127865e-38
0.43949872 -0.39108679 0.80450594 1.8127865e-38
0.44234154 -0.39600065 0.80489248 1.8127865e-38
0.43602628 -0.3850466 0.80472726 1.8127865e-38
0.44809982 -0.387353 0.8025412 1.8127865e-38
0.42911848 -0.37224326 0.80460745 1.8127865e-38
0.43152523 -0.37694848 0.80540437 1.8127865e-38
0.42563021 -0.36552137 0.80522841 1.8127865e-38
0.41870373 -0.35235921 0.80552757 1.8127865e-38
0.42151433 -0.35756516 0.80499423 1.8127865e-38
0.41473553 -0.34483051 0.80496484 1.8127865e-38
0.40857416 -0.33297306 0.80464602 1.8127865e-38
0.41097626 -0.33778188 0.80548525 1.8127865e-38
0.40447605 -0.32494092 0.80476511 1.8127865e-38
0.39860791 -0.31372187 0.80533218 1.8127865e-38
0.40209737 -0.31725964 0.80259818 1.8127865e-38
0.39382643 -0.30461484 0.80527037 1.8127865e-38
0.39580262 -0.2951988 0.80435133 1.8127865e-38
0.4005537 -0.29056984 0.80554783 1.8127865e-38
0.45830679 -0.42220545 0.81470931 1.8127865e-38
0.45386785 -0.41583693 0.8154617 1.8127865e-38
0.4502691 -0.40995675 0.81222272 1.8127865e-38
0.44251224 -0.39673147 0.81478685 1.8127865e-38
0.40518662 -0.28455037 0.82488334 1.8127865e-38
0.41160548 -0.28080791 0.82519799 1.8127865e-38
0.41652226 -0.27783781 0.82509661 1.8127865e-38
0.42445904 -0.27305657 0.82548368 1.8127865e-38
0.43089968 -0.27032769 0.82132453 1.8127865e-38
0.42955601 -0.26984727 0.82720357 1.8127865e-38
0.43323526 -0.26829597 0.82554531 1.8127865e-38
0.46483076 -0.4226813 0.83735007 1.8127865e-38
0.46262148 -0.41770035 0.83892286 1.8127865e-38
0.45238429 -0.40600544 0.83580983 1.8127865e-38
0.4455215 -0.39489856 0.83494771 1.8127865e-38
0.45514199 -0.39955646 0.83554673 1.8127865e-38
0.44174379 -0.38702685 0.83647472 1.8127865e-38
0.43415225 -0.37512687 0.83579677 1.8127865e-38
0.42717323 -0.36421525 0.83512098 1.8127865e-38
0.43151879 -0.36532104 0.838907 1.8127865e-38
0.41930354 -0.3515625 0.83289081 1.8127865e-38
0.42500204 -0.35492203 0.83681017 1.8127865e-38
0.4307642 -0.35673338 0.83964902 1.8127865e-38
0.41718951 -0.34449092 0.83480155 1.8127865e-38
0.42408341 -0.34532914 0.83842498 1.8127865e-38
0.43036965 -0.34680879 0.835563 1.8127865e-38
0.4788267 -0.34210524 0.83868641 1.8127865e-38
0.48457378 -0.3481757 0.83496094 1.8127865e-38
0.40834439 -0.33165339 0.83426422 1.8127865e-38
0.41495886 -0.33492562 0.83616042 1.8127865e-38
0.42232984 -0.33560383 0.8388958 1.8127865e-38
0.47592598 -0.33570468 0.83628446 1.8127865e-38
0.40654936 -0.32454735 0.83448613 1.8127865e-38
0.41494882 -0.32495669 0.83779091 1.8127865e-38
0.42106408 -0.32597184 0.83952445 1.8127865e-38
0.46563947 -0.32225126 0.83887601 1.8127865e-38
0.47179523 -0.32732776 0.83545858 1.8127865e-38
0.40461168 -0.31469667 0.83656657 1.8127865e-38
0.4138166 -0.3161886 0.83904415 1.8127865e-38
0.43099725 -0.31306472 0.83967662 1.8127865e-38
0.45897818 -0.31423724 0.83930862 1.8127865e-38
0.46275079 -0.31622058 0.83783752 1.8127865e-38
0.39847186 -0.30380467 0.83520466 1.8127865e-38
0.40361342 -0.30520052 0.83914351 1.8127865e-38
0.41193098 -0.30034536 0.83989686 1.8127865e-38
0.45682186 -0.30605641 0.83839244 1.8127865e-38
0.46144003 -0.30900234 0.83472216 1.8127865e-38
0.3979207 -0.29568842 0.83372253 1.8127865e-38
0.404443 -0.29456532 0.83791292 1.8127865e-38
0.4136003 -0.29484704 0.83923781 1.8127865e-38
0.44779754 -0.29020345 0.83968776 1.8127865e-38
0.45535791 -0.29946756 0.83424747 1.8127865e-38
0.3993381 -0.28916118 0.83131599 1.8127865e-38
0.4054791 -0.28611284 0.83475089 1.8127865e-38
0.41453812 -0.28428754 0.83783382 1.8127865e-38
0.42009464 -0.28213182 0.83982295 1.8127865e-38
0.44351315 -0.28375918 0.83928823 1.8127865e-38
0.41705209 -0.27831051 0.83386815 1.8127865e-38
0.42515627 -0.2755529 0.83538717 1.8127865e-38
0.4346149 -0.27396029 0.83678406 1.8127865e-38
0.44114971 -0.27632946 0.83773983 1.8127865e-38
0.43433779 -0.26908967 0.83153671 1.8127865e-38
0.47070599 -0.4207626 0.84037036 1.8127865e-38
0.45844579 -0.41069818 0.8403514 1.8127865e-38
0.46601203 -0.41387388 0.84144789 1.8127865e-38
0.47401825 -0.41331807 0.84357017 1.8127865e-38
0.45650047 -0.40405923 0.84158468 1.8127865e-38
0.46471161 -0.40498501 0.84285003 1.8127865e-38
0.4747434 -0.40509114 0.8443253 1.8127865e-38
0.48351324 -0.40366903 0.84585685 1.8127865e-38
0.49097228 -0.40333629 0.84671569 1.8127865e-38
0.44825947 -0.39316905 0.8416186 1.8127865e-38
0.45487091 -0.39515606 0.8425858 1.8127865e-38
0.46516901 -0.39493445 0.84374064 1.8127865e-38
0.47502261 -0.39500731 0.84520179 1.8127865e-38
0.48468634 -0.39515612 0.84620136 1.8127865e-38
0.49399462 -0.39386091 0.84491497 1.8127865e-38
0.501504 -0.39104199 0.84331042 1.8127865e-38
0.44577318 -0.38451007 0.84248489 1.8127865e-38
0.45497879 -0.38487554 0.8436622 1.8127865e-38
0.46497047 -0.38529113 0.84460658 1.8127865e-38
0.47497147 -0.38515857 0.84592295 1.8127865e-38
0.48507741 -0.38477403 0.84571356 1.8127865e-38
0.4952012 -0.38528392 0.84415501 1.8127865e-38
0.50171435 -0.38793552 0.84307837 1.8127865e-38
0.43765005 -0.37385714 0.8416118 1.8127865e-38
0.44470274 -0.3750084 0.84345496 1.8127865e-38
0.45501956 -0.37485006 0.8445307 1.8127865e-38
0.46515733 -0.37491342 0.84550357 1.8127865e-38
0.47472486 -0.3752279 0.84596068 1.8127865e-38
0.48462626 -0.37526092 0.84515828 1.8127865e-38
0.49276304 -0.37540343 0.8440088 1.8127865e-38
0.43624666 -0.36469811 0.84187394 1.8127865e-38
0.44449165 -0.36504802 0.84378934 1.8127865e-38
0.45439485 -0.3648423 0.84514642 1.8127865e-38
0.46456879 -0.3651666 0.84584528 1.8127865e-38
0.47483215 -0.36489373 0.84540737 1.8127865e-38
0.4844912 -0.3653807 0.84456164 1.8127865e-38
0.4903692 -0.36857653 0.84404278 1.8127865e-38
0.43477517 -0.35474718 0.84196705 1.8127865e-38
0.44464535 -0.35523415 0.84403253 1.8127865e-38
0.45490071 -0.35473609 0.84513587 1.8127865e-38
0.46489465 -0.35500777 0.84537685 1.8127865e-38
0.4750891 -0.35517484 0.84479773 1.8127865e-38
0.482546 -0.35546738 0.84374386 1.8127865e-38
0.42855224 -0.34331188 0.84068364 1.8127865e-38
0.43454534 -0.34507233 0.84249765 1.8127865e-38
0.44432727 -0.34507284 0.84406483 1.8127865e-38
0.45477113 -0.34490976 0.84483433 1.8127865e-38
0.46538374 -0.34503341 0.84473842 1.8127865e-38
0.47428355 -0.34543565 0.8439678 1.8127865e-38
0.4805479 -0.34752828 0.84159464 1.8127865e-38
0.42710173 -0.33466837 0.84113055 1.8127865e-38
0.43503514 -0.33491451 0.84290683 1.8127865e-38
0.44498295 -0.33503821 0.84405541 1.8127865e-38
0.45477104 -0.3353329 0.84450299 1.8127865e-38
0.4650431 -0.33506826 0.84404463 1.8127865e-38
0.47176966 -0.33679995 0.84261388 1.8127865e-38
0.42578077 -0.32458267 0.84157228 1.8127865e-38
0.43459994 -0.32511693 0.84305447 1.8127865e-38
0.44440913 -0.3250095 0.84386957 1.8127865e-38
0.4546037 -0.32497755 0.8440603 1.8127865e-38
0.46337298 -0.32636774 0.8422519 1.8127865e-38
0.41704297 -0.31321028 0.84052539 1.8127865e-38
0.42520976 -0.3149232 0.84215754 1.8127865e-38
0.43525636 -0.31506535 0.84319717 1.8127865e-38
0.4449183 -0.31481802 0.84353417 1.8127865e-38
0.45380321 -0.31559646 0.84249109 1.8127865e-38
0.4600932 -0.31934738 0.84031504 1.8127865e-38
0.40690067 -0.30465445 0.84032416 1.8127865e-38
0.41514012 -0.30494213 0.84095532 1.8127865e-38
0.42464375 -0.30459741 0.84231049 1.8127865e-38
0.43520835 -0.30536908 0.84236073 1.8127865e-38
0.44524622 -0.30514818 0.84214216 1.8127865e-38
0.45217985 -0.30573413 0.84161115 1.8127865e-38
0.41863737 -0.29552531 0.84038162 1.8127865e-38
0.42518899 -0.29490498 0.84201312 1.8127865e-38
0.43481916 -0.29489398 0.84323788 1.8127865e-38
0.4446736 -0.29521003 0.84187007 1.8127865e-38
0.4513312 -0.29965389 0.84120715 1.8127865e-38
0.41986698 -0.28739947 0.84012651 1.8127865e-38
0.42536756 -0.28501189 0.84125513 1.8127865e-38
0.43456721 -0.28483513 0.84233737 1.8127865e-38
0.44227898 -0.28732654 0.84103209 1.8127865e-38
0.42590544 -0.27974334 0.8400625 1.8127865e-38
0.43450513 -0.2794728 0.84018761 1.8127865e-38
0.47241005 -0.3883155 0.85410321 1.8127865e-38
0.44422179 -0.34271675 0.85262442 1.8127865e-38
0.4721379 -0.34721979 0.85147816 1.8127865e-38
0.44018915 -0.33388254 0.85443372 1.8127865e-38
0.43196595 -0.30423823 0.85210234 1.8127865e-38
0.62883443 -0.30110997 0.63638723 7.6316788e-39
0.63192534 -0.30377191 0.6368534 7.6316788e-39
0.62469852 -0.29513961 0.63515759 7.6316788e-39
0.61746997 -0.28377753 0.63460225 7.6316788e-39
0.62097096 -0.288919 0.63580889 7.6316788e-39
0.60823315 -0.27197173 0.63357514 7.6316788e-39
0.61231065 -0.27660608 0.63534856 7.6316788e-39
0.59912735 -0.26140162 0.63050061 7.6316788e-39
0.60365558 -0.26557952 0.63535321 7.6316788e-39
0.59557438 -0.25543898 0.63505876 7.6316788e-39
0.58689535 -0.24432991 0.63509423 7.6316788e-39
0.59086263 -0.24921644 0.63567019 7.6316788e-39
0.57736707 -0.23326808 0.63484293 7.6316788e-39
0.58161545 -0.23805769 0.63544649 7.6316788e-39
0.56780517 -0.22204889 0.63546121 7.6316788e-39
0.57206434 -0.22711594 0.63444072 7.6316788e-39
0.55896378 -0.21091929 0.63435078 7.6316788e-39
0.56309569 -0.21615332 0.63489014 7.6316788e-39
0.55444109 -0.20480756 0.63532513 7.6316788e-39
0.54762048 -0.19439733 0.63493764 7.6316788e-39
0.55073571 -0.19881038 0.63792187 7.6316788e-39
0.53933662 -0.18049377 0.63145185 7.6316788e-39
0.54218686 -0.18527623 0.63513911 7.6316788e-39
0.53724253 -0.17457272 0.6352666 7.6316788e-39
0.54010838 -0.17930189 0.63999909 7.6316788e-39
0.53827792 -0.16792758 0.63524961 7.6316788e-39
0.54487908 -0.16533187 0.6353457 7.6316788e-39
0.55295902 -0.16137442 0.63438064 7.6316788e-39
0.55797762 -0.1587874 0.63433194 7.6316788e-39
0.5652979 -0.15458028 0.63496155 7.6316788e-39
0.57170755 -0.15093799 0.6368314 7.6316788e-39
0.62936664 -0.30091417 0.64717555 7.6316788e-39
0.63187051 -0.3044472 0.64952558 7.6316788e-39
0.6254878 -0.29448846 0.64514059 7.6316788e-39
0.61826789 -0.28247398 0.64451277 7.6316788e-39
0.6214149 -0.28729439 0.64550716 7.6316788e-39
0.60916483 -0.27057683 0.64228237 7.6316788e-39
0.61379331 -0.27586514 0.64489394 7.6316788e-39
0.60498345 -0.26520082 0.64513195 7.6316788e-39
0.59616172 -0.25421301 0.64450294 7.6316788e-39
0.60024333 -0.25915807 0.64669508 7.6316788e-39
0.58758235 -0.24321923 0.64469719 7.6316788e-39
0.5916332 -0.24826294 0.64550513 7.6316788e-39
0.57798421 -0.23267333 0.64496702 7.6316788e-39
0.5825237 -0.23700424 0.64537644 7.6316788e-39
0.56889743 -0.22221881 0.64410454 7.6316788e-39
0.57325351 -0.22679891 0.64498687 7.6316788e-39
0.55932277 -0.21038923 0.64476216 7.6316788e-39
0.56352383 -0.2155932 0.64512199 7.6316788e-39
0.55545402 -0.20479569 0.64460289 7.6316788e-39
0.56855214 -0.20721652 0.64993042 7.6316788e-39
0.54775208 -0.19326854 0.64522022 7.6316788e-39
0.55116713 -0.19837141 0.64422619 7.6316788e-39
0.54312623 -0.18495564 0.64498067 7.6316788e-39
0.5381881 -0.17392994 0.64474064 7.6316788e-39
0.54051435 -0.17900798 0.64650375 7.6316788e-39
0.53801203 -0.1689862 0.64465165 7.6316788e-39
0.54462427 -0.16569319 0.64416051 7.6316788e-39
0.55324829 -0.16136913 0.64355206 7.6316788e-39
0.55865556 -0.15869644 0.64269161 7.6316788e-39
0.56465429 -0.15574388 0.64301485 7.6316788e-39
0.57278812 -0.15155509 0.64219773 7.6316788e-39
0.63516742 -0.30348608 0.65305114 7.6316788e-39
0.64123571 -0.30664605 0.65338218 7.6316788e-39
0.62771744 -0.29432738 0.65157825 7.6316788e-39
0.63218617 -0.29796657 0.65342408 7.6316788e-39
0.61930192 -0.28171906 0.6552254 7.6316788e-39
0.62256438 -0.28654236 0.65324312 7.6316788e-39
0.61435276 -0.2748172 0.65521926 7.6316788e-39
0.60553032 -0.26410744 0.65493953 7.6316788e-39
0.61030054 -0.2694231 0.6568681 7.6316788e-39
0.59705007 -0.25369123 0.65478081 7.6316788e-39
0.60093015 -0.25813046 0.65647554 7.6316788e-39
0.5882324 -0.24251413 0.65458649 7.6316788e-39
0.59193486 -0.24707809 0.65518266 7.6316788e-39
0.57876742 -0.23101923 0.65396798 7.6316788e-39
0.58336532 -0.23643611 0.6552422 7.6316788e-39
0.56848091 -0.22022511 0.65003866 7.6316788e-39
0.5738849 -0.22515711 0.65489978 7.6316788e-39
0.58328289 -0.22751299 0.65482736 7.6316788e-39
0.5597381 -0.210196 0.6509409 7.6316788e-39
0.56517071 -0.21527581 0.65573436 7.6316788e-39
0.55636072 -0.20516877 0.65503925 7.6316788e-39
0.54811925 -0.19313507 0.65572309 7.6316788e-39
0.55208826 -0.19684079 0.65564513 7.6316788e-39
0.54399633 -0.1853672 0.65465772 7.6316788e-39
0.53829634 -0.17368379 0.65514863 7.6316788e-39
0.54076606 -0.1788533 0.65396231 7.6316788e-39
0.53814888 -0.16740189 0.65646785 7.6316788e-39
0.54717183 -0.15756787 0.65853596 7.6316788e-39
0.55721235 -0.15303099 0.65831316 7.6316788e-39
0.56530219 -0.15146078 0.65334082 7.6316788e-39
0.56737107 -0.14881143 0.65815139 7.6316788e-39
0.57235229 -0.14819562 0.65562546 7.6316788e-39
0.64036375 -0.31041488 0.66158926 7.6316788e-39
0.63561547 -0.30262756 0.66642118 7.6316788e-39
0.62641823 -0.29288059 0.66662508 7.6316788e-39
0.63153845 -0.2982842 0.66697353 7.6316788e-39
0.61923629 -0.28126574 0.6644814 7.6316788e-39
0.62205172 -0.28622538 0.665618 7.6316788e-39
0.61607617 -0.2752662 0.66541409 7.6316788e-39
0.60716158 -0.26404238 0.66479963 7.6316788e-39
0.61120868 -0.26891345 0.6649335 7.6316788e-39
0.59752512 -0.25218225 0.66503662 7.6316788e-39
0.60191011 -0.25756419 0.66517758 7.6316788e-39
0.57980394 -0.24074799 0.66785264 7.6316788e-39
0.58856738 -0.24111573 0.66394126 7.6316788e-39
0.59271091 -0.24611355 0.66513652 7.6316788e-39
0.57911217 -0.23032738 0.66014242 7.6316788e-39
0.58395213 -0.23509109 0.66532779 7.6316788e-39
0.59154421 -0.23544659 0.66635531 7.6316788e-39
0.57558984 -0.22497545 0.664994 7.6316788e-39
0.56656784 -0.21441704 0.66515577 7.6316788e-39
0.57132179 -0.21921675 0.66747946 7.6316788e-39
0.55694324 -0.20388225 0.66494262 7.6316788e-39
0.56147188 -0.20869571 0.66585797 7.6316788e-39
0.54864305 -0.19211759 0.66447115 7.6316788e-39
0.55198944 -0.19732942 0.6648168 7.6316788e-39
0.54418898 -0.18477653 0.66489536 7.6316788e-39
0.53859127 -0.17324777 0.66447794 7.6316788e-39
0.54102272 -0.17725359 0.66708416 7.6316788e-39
0.53846157 -0.16546829 0.66485232 7.6316788e-39
0.54135245 -0.16094603 0.66510272 7.6316788e-39
0.55140609 -0.16555299 0.66435766 7.6316788e-39
0.54605091 -0.15779082 0.66567439 7.6316788e-39
0.55445111 -0.15295389 0.66592878 7.6316788e-39
0.56394452 -0.15220076 0.66535676 7.6316788e-39
0.56519336 -0.1494524 0.66520166 7.6316788e-39
0.57461876 -0.14849304 0.66522437 7.6316788e-39
0.58079147 -0.14893313 0.66847813 7.6316788e-39
0.63673103 -0.30284455 0.67519373 7.6316788e-39
0.62711132 -0.29312372 0.67551172 7.6316788e-39
0.63169074 -0.29803121 0.67452604 7.6316788e-39
0.61935556 -0.28028673 0.67467225 7.6316788e-39
0.62220782 -0.28525192 0.6748625 7.6316788e-39
0.60696387 -0.27143887 0.67485052 7.6316788e-39
0.61627334 -0.27476227 0.67529154 7.6316788e-39
0.60756564 -0.26298612 0.67505252 7.6316788e-39
0.61207622 -0.26834172 0.67552954 7.6316788e-39
0.59887558 -0.25226524 0.67460686 7.6316788e-39
0.60331881 -0.25647342 0.67506427 7.6316788e-39
0.58892918 -0.24006818 0.67129767 7.6316788e-39
0.59339195 -0.2452516 0.6748417 7.6316788e-39
0.57483816 -0.23071872 0.67895418 7.6316788e-39
0.58525354 -0.23465069 0.6749357 7.6316788e-39
0.57710594 -0.22426465 0.67468667 7.6316788e-39
0.58135891 -0.22924016 0.67680633 7.6316788e-39
0.56681198 -0.21236324 0.67442924 7.6316788e-39
0.57186866 -0.21761602 0.6759643 7.6316788e-39
0.55785078 -0.2024243 0.67565 7.6316788e-39
0.5624063 -0.20758891 0.67460704 7.6316788e-39
0.54893339 -0.19205336 0.67523861 7.6316788e-39
0.55276501 -0.19685562 0.67534804 7.6316788e-39
0.54583704 -0.18520701 0.6750074 7.6316788e-39
0.53984934 -0.17051578 0.67626619 7.6316788e-39
0.54197854 -0.17570417 0.67505723 7.6316788e-39
0.53846753 -0.16553292 0.67501098 7.6316788e-39
0.54123282 -0.16097555 0.6741482 7.6316788e-39
0.54633343 -0.15764642 0.67554325 7.6316788e-39
0.55471122 -0.15338665 0.67514145 7.6316788e-39
0.56131059 -0.15052138 0.67645192 7.6316788e-39
0.56490117 -0.14674443 0.67699045 7.6316788e-39
0.57724512 -0.14982583 0.67035007 7.6316788e-39
0.63667655 -0.30067185 0.68162817 7.6316788e-39
0.64085245 -0.3036001 0.68331248 7.6316788e-39
0.6267221 -0.29246646 0.68527925 7.6316788e-39
0.6321516 -0.29723576 0.6841839 7.6316788e-39
0.61984086 -0.28075698 0.68430436 7.6316788e-39
0.6227569 -0.28584638 0.68544781 7.6316788e-39
0.61691332 -0.27506158 0.68548101 7.6316788e-39
0.60806686 -0.2621561 0.68623191 7.6316788e-39
0.61194748 -0.26718551 0.68458968 7.6316788e-39
0.59920973 -0.25114062 0.68441027 7.6316788e-39
0.60315573 -0.25605252 0.68479049 7.6316788e-39
0.59444612 -0.24505801 0.68504274 7.6316788e-39
0.58675534 -0.23501883 0.68500245 7.6316788e-39
0.57774997 -0.22314161 0.68470728 7.6316788e-39
0.58179343 -0.22834614 0.68555152 7.6316788e-39
0.56755245 -0.21154074 0.68384504 7.6316788e-39
0.57270634 -0.21657859 0.68530875 7.6316788e-39
0.5588786 -0.20148121 0.68523276 7.6316788e-39
0.56337762 -0.20636024 0.6849764 7.6316788e-39
0.54966331 -0.19113111 0.68256778 7.6316788e-39
0.55332214 -0.19536503 0.68532902 7.6316788e-39
0.54618216 -0.18506384 0.68617439 7.6316788e-39
0.53901404 -0.17288682 0.68667722 7.6316788e-39
0.54134852 -0.17677476 0.6879999 7.6316788e-39
0.53807962 -0.16526125 0.68555593 7.6316788e-39
0.54090565 -0.16055624 0.6853835 7.6316788e-39
0.54526925 -0.15755926 0.68606073 7.6316788e-39
0.55500776 -0.15250994 0.68436176 7.6316788e-39
0.55965221 -0.14969103 0.68877614 7.6316788e-39
0.56554419 -0.14864035 0.68511963 7.6316788e-39
0.57391781 -0.14701028 0.68478125 7.6316788e-39
0.62766796 -0.29213065 0.69479209 7.6316788e-39
0.63262552 -0.29732013 0.69618225 7.6316788e-39
0.6235835 -0.28504401 0.69509089 7.6316788e-39
0.61731535 -0.27489588 0.69452387 7.6316788e-39
0.62054396 -0.27965963 0.69727665 7.6316788e-39
0.60888129 -0.26180989 0.6953091 7.6316788e-39
0.61253005 -0.26680559 0.69520301 7.6316788e-39
0.60361737 -0.25506625 0.69500816 7.6316788e-39
0.5957377 -0.24487981 0.69530642 7.6316788e-39
0.58715272 -0.23395109 0.69472474 7.6316788e-39
0.59117305 -0.23904419 0.6952244 7.6316788e-39
0.57825172 -0.22260197 0.6945473 7.6316788e-39
0.58199549 -0.22728169 0.69525158 7.6316788e-39
0.5690878 -0.2108974 0.69516587 7.6316788e-39
0.57324487 -0.21617401 0.69523168 7.6316788e-39
0.56413031 -0.20505944 0.69491005 7.6316788e-39
0.55495942 -0.19486938 0.69483608 7.6316788e-39
0.5473851 -0.18456279 0.69495207 7.6316788e-39
0.55068105 -0.18951291 0.69642085 7.6316788e-39
0.53984058 -0.17090121 0.69411588 7.6316788e-39
0.5428459 -0.17590067 0.69325936 7.6316788e-39
0.53906423 -0.16550033 0.6943568 7.6316788e-39
0.54109913 -0.1630244 0.6940158 7.6316788e-39
0.54612368 -0.15687993 0.69449222 7.6316788e-39
0.55347008 -0.15171334 0.69474447 7.6316788e-39
0.55906171 -0.14989416 0.69829828 7.6316788e-39
0.56510365 -0.14823298 0.69524753 7.6316788e-39
0.57391942 -0.14615107 0.6948427 7.6316788e-39
0.63706005 -0.30085889 0.70243406 7.6316788e-39
0.62846941 -0.29138055 0.70373535 7.6316788e-39
0.63341272 -0.29645687 0.70500678 7.6316788e-39
0.62430972 -0.28503767 0.70531899 7.6316788e-39
0.61760414 -0.27394351 0.70489085 7.6316788e-39
0.62063277 -0.27901593 0.70456827 7.6316788e-39
0.60948396 -0.26086134 0.70363045 7.6316788e-39
0.61274803 -0.26577494 0.70538199 7.6316788e-39
0.60523039 -0.25491202 0.70513374 7.6316788e-39
0.61100584 -0.25419325 0.70499176 7.6316788e-39
0.5966568 -0.24376443 0.70500559 7.6316788e-39
0.60052919 -0.24899314 0.70406061 7.6316788e-39
0.5880267 -0.23306064 0.70460492 7.6316788e-39
0.59221387 -0.23808752 0.705127 7.6316788e-39
0.57830167 -0.2212839 0.70399171 7.6316788e-39
0.58254212 -0.22623913 0.70517725 7.6316788e-39
0.56973302 -0.21065676 0.70368648 7.6316788e-39
0.5738976 -0.2155412 0.70546961 7.6316788e-39
0.5655157 -0.20504102 0.70525533 7.6316788e-39
0.55650258 -0.1941026 0.70459372 7.6316788e-39
0.5608989 -0.19913888 0.70590687 7.6316788e-39
0.54815406 -0.18268593 0.7040717 7.6316788e-39
0.55190378 -0.18693174 0.70618761 7.6316788e-39
0.53938353 -0.17111376 0.70221412 7.6316788e-39
0.54401284 -0.17539699 0.70552665 7.6316788e-39
0.5395534 -0.16741283 0.70285171 7.6316788e-39
0.54081267 -0.16388838 0.70572978 7.6316788e-39
0.54459471 -0.15612754 0.70537674 7.6316788e-39
0.55518544 -0.15142888 0.70496851 7.6316788e-39
0.56532323 -0.14854923 0.70415658 7.6316788e-39
0.57479823 -0.14599131 0.70445836 7.6316788e-39
0.58368051 -0.146672 0.70788455 7.6316788e-39
0.63803113 -0.30038136 0.71237266 7.6316788e-39
0.62882203 -0.29028273 0.71019363 7.6316788e-39
0.63383114 -0.29496768 0.71513146 7.6316788e-39
0.62574726 -0.284787 0.71501267 7.6316788e-39
0.61842644 -0.27340835 0.71432215 7.6316788e-39
0.6215328 -0.27816892 0.71573538 7.6316788e-39
0.61345792 -0.2651802 0.71510857 7.6316788e-39
0.60628891 -0.25527346 0.71519524 7.6316788e-39
0.61003363 -0.25985652 0.71639615 7.6316788e-39
0.59736705 -0.24281587 0.71500069 7.6316788e-39
0.60151809 -0.24807273 0.71470523 7.6316788e-39
0.58862334 -0.23194353 0.71472102 7.6316788e-39
0.59256929 -0.23680906 0.71512055 7.6316788e-39
0.57890332 -0.22036527 0.71224582 7.6316788e-39
0.58328646 -0.2252571 0.71531355 7.6316788e-39
0.57484519 -0.21491726 0.71492314 7.6316788e-39
0.56652582 -0.20473748 0.71503896 7.6316788e-39
0.57132733 -0.20976284 0.71881551 7.6316788e-39
0.55716473 -0.19333008 0.71486247 7.6316788e-39
0.56141263 -0.19805488 0.71504277 7.6316788e-39
0.54926407 -0.1816411 0.71583992 7.6316788e-39
0.55233353 -0.18665835 0.71517712 7.6316788e-39
0.54625851 -0.17464297 0.71281987 7.6316788e-39
0.5422594 -0.16433501 0.71450192 7.6316788e-39
0.54638547 -0.15620911 0.71402985 7.6316788e-39
0.55181885 -0.15191391 0.71639538 7.6316788e-39
0.55632287 -0.1492599 0.71593225 7.6316788e-39
0.56523544 -0.14721294 0.7152586 7.6316788e-39
0.57517779 -0.14614552 0.71479219 7.6316788e-39
0.58163184 -0.14553401 0.71508038 7.6316788e-39
0.63512969 -0.29458943 0.72505963 7.6316788e-39
0.64124703 -0.29876718 0.72931778 7.6316788e-39
0.62665164 -0.28367591 0.72540116 7.6316788e-39
0.63072276 -0.28904742 0.72616076 7.6316788e-39
0.61910373 -0.27220654 0.72437072 7.6316788e-39
0.62224144 -0.27705273 0.72494334 7.6316788e-39
0.61481696 -0.26534241 0.72490722 7.6316788e-39
0.60720205 -0.2543959 0.72457993 7.6316788e-39
0.61097592 -0.25931877 0.72729897 7.6316788e-39
0.59833813 -0.24253125 0.72516948 7.6316788e-39
0.60218322 -0.24742229 0.72490698 7.6316788e-39
0.58925122 -0.23123576 0.72426766 7.6316788e-39
0.59327644 -0.23612192 0.72524709 7.6316788e-39
0.58432597 -0.22483259 0.72510272 7.6316788e-39
0.57599211 -0.21436475 0.72466403 7.6316788e-39
0.58039069 -0.21936297 0.72731292 7.6316788e-39
0.55859941 -0.20107068 0.72903872 7.6316788e-39
0.5669961 -0.20316508 0.72425783 7.6316788e-39
0.57123655 -0.20796153 0.72639406 7.6316788e-39
0.55810434 -0.19250655 0.72466058 7.6316788e-39
0.562298 -0.19730373 0.72518802 7.6316788e-39
0.54887259 -0.18174796 0.72384065 7.6316788e-39
0.552966 -0.18635836 0.72561818 7.6316788e-39
0.54505259 -0.17458841 0.72531384 7.6316788e-39
0.54365808 -0.16566759 0.72435713 7.6316788e-39
0.54596549 -0.15529874 0.72609401 7.6316788e-39
0.55337936 -0.15072076 0.72002673 7.6316788e-39
0.55437911 -0.1484578 0.7253387 7.6316788e-39
0.56634659 -0.1465221 0.72460544 7.6316788e-39
0.57732666 -0.14566056 0.72610945 7.6316788e-39
0.6363228 -0.29267058 0.7345342 7.6316788e-39
0.64211428 -0.29760638 0.7339108 7.6316788e-39
0.62792516 -0.28344026 0.73465067 7.6316788e-39
0.63212162 -0.28791404 0.73607296 7.6316788e-39
0.61939365 -0.27091235 0.73468733 7.6316788e-39
0.62287533 -0.27609646 0.7352736 7.6316788e-39
0.61531866 -0.26477385 0.73483664 7.6316788e-39
0.60727191 -0.25349522 0.73487544 7.6316788e-39
0.61092883 -0.25829947 0.73559016 7.6316788e-39
0.59847707 -0.24207509 0.7351594 7.6316788e-39
0.60230762 -0.24720135 0.73515368 7.6316788e-39
0.58963978 -0.23030512 0.73328745 7.6316788e-39
0.593512 -0.2353477 0.73481834 7.6316788e-39
0.58586639 -0.22506025 0.73525721 7.6316788e-39
0.57680124 -0.21370223 0.73483276 7.6316788e-39
0.58090603 -0.21877779 0.73497003 7.6316788e-39
0.56788051 -0.20261961 0.73514247 7.6316788e-39
0.57195514 -0.2072112 0.73551387 7.6316788e-39
0.5587008 -0.19150171 0.73465681 7.6316788e-39
0.56288517 -0.19648533 0.73536736 7.6316788e-39
0.54860204 -0.18035655 0.73063433 7.6316788e-39
0.55333751 -0.18495746 0.73506552 7.6316788e-39
0.54767078 -0.17506091 0.73540366 7.6316788e-39
0.55066031 -0.17881559 0.73911589 7.6316788e-39
0.54495478 -0.16519757 0.73655468 7.6316788e-39
0.54657656 -0.15597077 0.73400801 7.6316788e-39
0.55090892 -0.15100992 0.73390597 7.6316788e-39
0.57514042 -0.15117052 0.73015261 7.6316788e-39
0.55468965 -0.14749551 0.73546696 7.6316788e-39
0.56309205 -0.14540644 0.73566908 7.6316788e-39
0.57414889 -0.14505807 0.73491961 7.6316788e-39
0.58092821 -0.14452994 0.73845553 7.6316788e-39
0.63789034 -0.2919324 0.74473357 7.6316788e-39
0.64125431 -0.29590264 0.74448586 7.6316788e-39
0.62907916 -0.28184184 0.74443209 7.6316788e-39
0.63330549 -0.28648847 0.74534923 7.6316788e-39
0.62373066 -0.2748895 0.74502367 7.6316788e-39
0.61648464 -0.26492259 0.74464452 7.6316788e-39
0.62053853 -0.26938236 0.74969113 7.6316788e-39
0.60742825 -0.25316527 0.74573797 7.6316788e-39
0.61127287 -0.25801462 0.7445128 7.6316788e-39
0.59877586 -0.24223161 0.74477124 7.6316788e-39
0.60257214 -0.24714117 0.74539357 7.6316788e-39
0.59359813 -0.2350139 0.74518055 7.6316788e-39
0.58634371 -0.22488745 0.74520099 7.6316788e-39
0.59020346 -0.22963163 0.74890637 7.6316788e-39
0.56498706 -0.21025601 0.74107862 7.6316788e-39
0.577694 -0.21324381 0.74504155 7.6316788e-39
0.5815649 -0.21806006 0.74609739 7.6316788e-39
0.56879628 -0.20199943 0.74416858 7.6316788e-39
0.57295531 -0.20677654 0.74606895 7.6316788e-39
0.55944848 -0.19076461 0.74343866 7.6316788e-39
0.56378299 -0.1952733 0.74568653 7.6316788e-39
0.55553156 -0.18472467 0.74499428 7.6316788e-39
0.56004119 -0.18828383 0.74966079 7.6316788e-39
0.54889309 -0.17322433 0.74691594 7.6316788e-39
0.55141699 -0.17653964 0.74490106 7.6316788e-39
0.54802042 -0.16449021 0.7431435 7.6316788e-39
0.55008835 -0.16957451 0.74290025 7.6316788e-39
0.54715133 -0.15490681 0.74530828 7.6316788e-39
0.5505259 -0.15051231 0.74005407 7.6316788e-39
0.54991311 -0.14998509 0.74310893 7.6316788e-39
0.55509079 -0.1482891 0.74380922 7.6316788e-39
0.56471509 -0.14626539 0.74358064 7.6316788e-39
0.63653672 -0.29213172 0.75202018 7.6316788e-39
0.64513391 -0.29341716 0.75389421 7.6316788e-39
0.61777133 -0.26345685 0.75333065 7.6316788e-39
0.60851425 -0.25265345 0.75219399 7.6316788e-39
0.59882677 -0.24086624 0.75134784 7.6316788e-39
0.58759713 -0.22344404 0.75391501 7.6316788e-39
0.57847226 -0.21154258 0.7527976 7.6316788e-39
0.56954074 -0.20058656 0.75022179 7.6316788e-39
0.55826974 -0.18289948 0.75341719 7.6316788e-39
0.54947662 -0.17199403 0.75053751 7.6316788e-39
0.45326811 0.049827404 0.63764906 7.9551924e-39
0.4538846 0.055591829 0.63393223 7.9551924e-39
0.45755082 0.06433636 0.63381898 7.9551924e-39
0.46142092 0.069581747 0.63481188 7.9551924e-39
0.46666574 0.072332531 0.63508904 7.9551924e-39
0.47519824 0.076990403 0.63508022 7.9551924e-39
0.48003989 0.079693079 0.63873279 7.9551924e-39
0.47983098 0.080059938 0.63062072 7.9551924e-39
0.48512951 0.08318457 0.63578272 7.9551924e-39
0.49265027 0.087936804 0.63591975 7.9551924e-39
0.49748731 0.091145478 0.63372707 7.9551924e-39
0.50445348 0.095398359 0.63523364 7.9551924e-39
0.5100069 0.098825932 0.63416767 7.9551924e-39
0.51592112 0.10211814 0.63539958 7.9551924e-39
0.52499717 0.10727599 0.63747185 7.9551924e-39
0.53101301 0.10988497 0.6337142 7.9551924e-39
0.53656989 0.11250788 0.6367929 7.9551924e-39
0.54270452 0.1152347 0.63908446 7.9551924e-39
0.4490073 0.054320764 0.64766479 7.9551924e-39
0.45387444 0.053477556 0.644162 7.9551924e-39
0.46263337 0.051475633 0.6417461 7.9551924e-39
0.45575136 0.063940965 0.64555007 7.9551924e-39
0.46213332 0.068823144 0.6449638 7.9551924e-39
0.46764198 0.071856678 0.64512104 7.9551924e-39
0.4746227 0.075943224 0.64510119 7.9551924e-39
0.48034921 0.07947243 0.64380878 7.9551924e-39
0.48574704 0.08304482 0.64557171 7.9551924e-39
0.49339083 0.088064171 0.64441264 7.9551924e-39
0.50241232 0.088691868 0.64100391 7.9551924e-39
0.49836203 0.091285206 0.64349276 7.9551924e-39
0.5049668 0.095536403 0.6445207 7.9551924e-39
0.51164055 0.099736318 0.64689422 7.9551924e-39
0.51608461 0.1023147 0.64399689 7.9551924e-39
0.52452451 0.10700881 0.64583033 7.9551924e-39
0.53372705 0.11172901 0.64492792 7.9551924e-39
0.54100388 0.11473998 0.64419591 7.9551924e-39
0.44925928 0.054277401 0.65419382 7.9551924e-39
0.45261744 0.058017127 0.65563548 7.9551924e-39
0.4566707 0.06346599 0.65448475 7.9551924e-39
0.46217024 0.067842782 0.65535778 7.9551924e-39
0.46793821 0.071684889 0.65489584 7.9551924e-39
0.47554982 0.076533154 0.65464818 7.9551924e-39
0.48516318 0.082983613 0.6555177 7.9551924e-39
0.49298811 0.08806058 0.6544016 7.9551924e-39
0.49820361 0.091431119 0.65466028 7.9551924e-39
0.50564456 0.096283339 0.65538269 7.9551924e-39
0.51025641 0.099269673 0.65300936 7.9551924e-39
0.51552594 0.10222799 0.65581274 7.9551924e-39
0.52480513 0.10721602 0.65489572 7.9551924e-39
0.53449941 0.11217775 0.65363359 7.9551924e-39
0.54236126 0.11611646 0.65444398 7.9551924e-39
0.45644644 0.049263712 0.66562814 7.9551924e-39
0.46168715 0.049462527 0.66258872 7.9551924e-39
0.44979987 0.05355221 0.66345036 7.9551924e-39
0.45131096 0.054793119 0.66639894 7.9551924e-39
0.45647743 0.062831044 0.66510564 7.9551924e-39
0.46252733 0.067533165 0.66544813 7.9551924e-39
0.46694729 0.070997708 0.66539443 7.9551924e-39
0.47471312 0.076087996 0.66455811 7.9551924e-39
0.48053235 0.079859048 0.66800511 7.9551924e-39
0.4845691 0.082608283 0.66496271 7.9551924e-39
0.49251047 0.087860487 0.66558278 7.9551924e-39
0.49741632 0.091021009 0.66390067 7.9551924e-39
0.50507307 0.095777683 0.6650039 7.9551924e-39
0.51540858 0.10215674 0.66528237 7.9551924e-39
0.52475411 0.10736647 0.66428989 7.9551924e-39
0.53481561 0.1133095 0.66516697 7.9551924e-39
0.54376072 0.11748444 0.66447276 7.9551924e-39
0.46235994 0.049226344 0.67360449 7.9551924e-39
0.45188022 0.054787792 0.67552161 7.9551924e-39
0.45688558 0.062617958 0.67610681 7.9551924e-39
0.46277502 0.067911826 0.67523974 7.9551924e-39
0.46777192 0.071509816 0.67440623 7.9551924e-39
0.47429508 0.075647242 0.67491275 7.9551924e-39
0.48026428 0.079572566 0.67371696 7.9551924e-39
0.47995734 0.088984311 0.67728937 7.9551924e-39
0.48527327 0.082894251 0.67527002 7.9551924e-39
0.49265319 0.08770375 0.6749233 7.9551924e-39
0.49826419 0.091425322 0.67520541 7.9551924e-39
0.504475 0.095463663 0.67495877 7.9551924e-39
0.51081336 0.099504538 0.67478037 7.9551924e-39
0.515935 0.1026817 0.6756953 7.9551924e-39
0.52421212 0.10736414 0.67520291 7.9551924e-39
0.52957481 0.1102251 0.67334086 7.9551924e-39
0.53547275 0.11346588 0.67536646 7.9551924e-39
0.54191297 0.11689493 0.67393184 7.9551924e-39
0.45636177 0.048711553 0.68960178 7.9551924e-39
0.44992739 0.051630292 0.68147576 7.9551924e-39
0.45250335 0.054075796 0.6852476 7.9551924e-39
0.45761022 0.062063508 0.68477523 7.9551924e-39
0.46306777 0.06720379 0.68433535 7.9551924e-39
0.4686096 0.071777701 0.68400532 7.9551924e-39
0.47558576 0.076431647 0.68463665 7.9551924e-39
0.47965303 0.087366171 0.68853694 7.9551924e-39
0.48555723 0.083043009 0.68475658 7.9551924e-39
0.49269643 0.087896295 0.6852684 7.9551924e-39
0.49750668 0.091086708 0.68512017 7.9551924e-39
0.50496262 0.095809214 0.68526155 7.9551924e-39
0.51001996 0.098973908 0.68240076 7.9551924e-39
0.51546788 0.10238427 0.685067 7.9551924e-39
0.52410924 0.10745193 0.68513024 7.9551924e-39
0.53449774 0.11314467 0.68574655 7.9551924e-39
0.54313469 0.11724796 0.68537796 7.9551924e-39
0.45455679 0.049256451 0.69500482 7.9551924e-39
0.44999796 0.052732624 0.69441628 7.9551924e-39
0.45187277 0.055170879 0.69572788 7.9551924e-39
0.44466215 0.063281327 0.69342083 7.9551924e-39
0.45668927 0.062743388 0.69468731 7.9551924e-39
0.46217126 0.067801759 0.69506013 7.9551924e-39
0.46741644 0.071386553 0.69450444 7.9551924e-39
0.47460508 0.076133199 0.69502366 7.9551924e-39
0.4803198 0.079932511 0.69695359 7.9551924e-39
0.4849216 0.082882427 0.69446087 7.9551924e-39
0.492845 0.088101402 0.69529134 7.9551924e-39
0.49807361 0.091458321 0.69417578 7.9551924e-39
0.50462896 0.0956394 0.69488919 7.9551924e-39
0.51120549 0.099707872 0.69604588 7.9551924e-39
0.51603949 0.10265239 0.69474047 7.9551924e-39
0.52480298 0.10767712 0.69490325 7.9551924e-39
0.51344484 0.1118402 0.6983524 7.9551924e-39
0.52960277 0.11033011 0.69379425 7.9551924e-39
0.53462821 0.11288515 0.69368237 7.9551924e-39
0.54112256 0.11450712 0.6911909 7.9551924e-39
0.45493549 0.047904208 0.70383334 7.9551924e-39
0.45370084 0.055545434 0.70328671 7.9551924e-39
0.45564419 0.063298978 0.70480162 7.9551924e-39
0.46217895 0.068108991 0.70546997 7.9551924e-39
0.46761179 0.07169956 0.70437795 7.9551924e-39
0.47547787 0.07691063 0.70547807 7.9551924e-39
0.4854303 0.083420821 0.70486295 7.9551924e-39
0.49297711 0.088300139 0.7051689 7.9551924e-39
0.49793077 0.091471948 0.70480049 7.9551924e-39
0.50519615 0.09598539 0.70516467 7.9551924e-39
0.51029253 0.099164829 0.70356768 7.9551924e-39
0.51582724 0.10247941 0.7047646 7.9551924e-39
0.52480984 0.10748775 0.70516431 7.9551924e-39
0.53495049 0.11305751 0.70424622 7.9551924e-39
0.45456964 0.048523515 0.71422482 7.9551924e-39
0.46040249 0.048310727 0.7114085 7.9551924e-39
0.45240918 0.055215169 0.71535546 7.9551924e-39
0.45585436 0.062909693 0.71473455 7.9551924e-39
0.46346828 0.068223156 0.71470809 7.9551924e-39
0.46813115 0.07127434 0.71483487 7.9551924e-39
0.47436684 0.075792849 0.71499491 7.9551924e-39
0.47759986 0.082281157 0.71156806 7.9551924e-39
0.48462576 0.083133467 0.71524799 7.9551924e-39
0.49261528 0.088247918 0.71504498 7.9551924e-39
0.49754533 0.091234408 0.71446562 7.9551924e-39
0.50541133 0.096005753 0.71480376 7.9551924e-39
0.45461446 0.048567291 0.72440064 7.9551924e-39
0.45273381 0.054965153 0.72512609 7.9551924e-39
0.4563655 0.062490895 0.72496206 7.9551924e-39
0.46275949 0.067770943 0.72516793 7.9551924e-39
0.46836346 0.071383432 0.72577786 7.9551924e-39
0.47478172 0.075932562 0.72482741 7.9551924e-39
0.54405892 0.11620982 0.72670901 7.9551924e-39
0.4550527 0.04831221 0.73430675 7.9551924e-39
0.46286243 0.047353625 0.73288167 7.9551924e-39
0.52411222 0.10682174 0.73506087 7.9551924e-39
0.53236496 0.11139181 0.73410892 7.9551924e-39
0.48450896 0.082860686 0.745206 7.9551924e-39
0.49264765 0.08805082 0.74540943 7.9551924e-39
0.4978306 0.091171883 0.74437422 7.9551924e-39
0.50502074 0.095390618 0.74487948 7.9551924e-39
0.51154137 0.099487826 0.74520278 7.9551924e-39
0.51666993 0.10265307 0.74490952 7.9551924e-39
0.52564186 0.10785819 0.74482882 7.9551924e-39
0.53437346 0.11276545 0.74564338 7.9551924e-39
0.54319811 0.11752637 0.74824303 7.9551924e-39
0.45398453 0.049118742 0.75792664 7.9551924e-39
0.45727208 0.063061766 0.7548843 7.9551924e-39
0.46378452 0.067877598 0.75505823 7.9551924e-39
0.46842355 0.070998162 0.75385964 7.9551924e-39
0.47480902 0.075475559 0.75516468 7.9551924e-39
0.48124751 0.079878546 0.75598747 7.9551924e-39
0.48527819 0.082690544 0.75474167 7.9551924e-39
0.49339232 0.087658539 0.75500596 7.9551924e-39
0.49835899 0.090791345 0.75523472 7.9551924e-39
0.50472569 0.094680965 0.75545001 7.9551924e-39
0.51147783 0.098866522 0.75449795 7.9551924e-39
0.51684725 0.10213054 0.75462532 7.9551924e-39
0.52509558 0.10709879 0.75469643 7.9551924e-39
0.53436238 0.11283474 0.75553584 7.9551924e-39
0.54327095 0.11798032 0.75466681 7.9551924e-39
0.54214251 0.12260381 0.75692743 7.9551924e-39
0.45584941 0.047405273 0.76439232 7.9551924e-39
0.46112618 0.046158165 0.76658684 7.9551924e-39
0.45247617 0.054942619 0.76556265 7.9551924e-39
0.45668364 0.062524095 0.76505303 7.9551924e-39
0.46347702 0.067546524 0.76524329 7.9551924e-39
0.4685201 0.070992738 0.76572049 7.9551924e-39
0.47525603 0.075424924 0.76536697 7.9551924e-39
0.48135215 0.079423502 0.7649408 7.9551924e-39
0.48627636 0.082569584 0.76508993 7.9551924e-39
0.49332982 0.087074801 0.76512331 7.9551924e-39
0.4983353 0.090242021 0.76434147 7.9551924e-39
0.50444674 0.094075233 0.76523954 7.9551924e-39
0.51221323 0.098941363 0.76490206 7.9551924e-39
0.5174762 0.10216586 0.7651549 7.9551924e-39
0.52567238 0.10722527 0.7652958 7.9551924e-39
