# .PCD v0.7 - Point Cloud Data file format
VERSION 0.7
FIELDS x y z rgb
SIZE 4 4 4 4
TYPE F F F F
COUNT 1 1 1 1
WIDTH 979
HEIGHT 1
VIEWPOINT 0 0 0 1 0 0 0
POINTS 979
DATA ascii
1.846388 1.4246116 -6.3180923e-06 5.2551509e-39
1.8532625 1.4256262 -7.2717667e-06 5.2551509e-39
1.8629392 1.4249666 -6.8902968e-06 5.2551509e-39
1.8740666 1.4245077 -8.225441e-06 5.2551509e-39
1.8845754 1.4249915 -7.7486038e-06 5.2551509e-39
1.8951468 1.4254797 -7.2717667e-06 5.2551509e-39
1.9065092 1.4250168 -6.532669e-06 5.2551509e-39
1.916514 1.424345 -8.1062317e-06 5.2551509e-39
1.9237001 1.4253803 -7.8678131e-06 5.2551509e-39
1.9352709 1.4249146 -8.5592274e-06 5.2551509e-39
1.9454552 1.4263752 -8.1062317e-06 5.2551509e-39
1.9527721 1.4252787 -7.6293945e-06 5.2551509e-39
1.9645538 1.4248075 -7.8201292e-06 5.2551509e-39
1.9749267 1.426282 -8.225441e-06 5.2551509e-39
1.9861212 1.4246191 -7.2717667e-06 5.2551509e-39
1.9973845 1.4251213 -6.3180923e-06 5.2551509e-39
2.00494 1.4261849 -5.9604645e-06 5.2551509e-39
2.0125327 1.4250691 -7.0333481e-06 5.2551509e-39
2.0247562 1.4245884 -7.0333481e-06 5.2551509e-39
2.0355208 1.4260907 -8.4638596e-06 5.2551509e-39
2.0432544 1.4249632 -8.4638596e-06 5.2551509e-39
2.0557055 1.4244759 -6.8664549e-06 5.2551509e-39
2.0666716 1.4259906 -6.7949295e-06 5.2551509e-39
2.0745552 1.4248548 -9.1791153e-06 5.2551509e-39
2.0824697 1.4237089 -7.1525574e-06 5.2551509e-39
2.0936227 1.4252348 -7.5101852e-06 5.2551509e-39
2.1064515 1.4247429 -8.8810921e-06 5.2551509e-39
2.1145205 1.4235878 -8.7022781e-06 5.2551509e-39
2.1226237 1.4246827 -5.364418e-06 5.2551509e-39
2.1348674 1.4252083 -7.7486038e-06 5.2551509e-39
2.1471891 1.4234636 -9.5367432e-06 5.2551509e-39
2.155452 1.4245706 -7.7486038e-06 5.2551509e-39
2.1637595 1.4256859 -9.059906e-06 5.2551509e-39
2.2403595 1.4266102 -7.0333481e-06 5.2551509e-39
0.80815214 1.4348136 -7.6293945e-06 6.4536941e-39
0.81399345 1.4352483 -5.6245112e-06 5.1629553e-39
0.82506895 1.4351466 -5.7646207e-06 5.1629553e-39
0.83625817 1.4350426 -5.0826507e-06 5.1629553e-39
0.84573001 1.4352744 -6.2942504e-06 5.1629553e-39
0.85461885 1.4349846 -4.9710275e-06 5.1629553e-39
0.86425668 1.4352186 -6.9358134e-06 5.1629553e-39
0.87454134 1.4350158 -5.3969297e-06 5.1629553e-39
0.88436139 1.4352512 -6.4253809e-06 5.1629553e-39
0.89357883 1.4349571 -5.9723852e-06 5.1629553e-39
0.90357286 1.4351931 -5.9062786e-06 5.1629553e-39
0.91424239 1.4349891 -6.8924642e-06 5.1629553e-39
0.92442864 1.4352266 -5.8293344e-06 5.1629553e-39
0.93399322 1.4349276 -6.0558318e-06 5.1629553e-39
0.94436592 1.4351693 -7.5318599e-06 5.1629553e-39
0.95543897 1.4349588 -5.9062786e-06 5.1629553e-39
0.96601421 1.435201 -5.209446e-06 5.1629553e-39
0.97594631 1.4348974 -6.6399575e-06 5.1629553e-39
0.98524439 1.4350398 -6.0498714e-06 5.1629553e-39
0.99462444 1.4351834 -4.7922135e-06 5.1629553e-39
1.0044174 1.4346123 -0.00054571388 5.1629553e-39
1.0157031 1.4353482 -0.00025778238 5.1629553e-39
1.0257281 1.4350682 -6.2670028e-06 5.1629553e-39
1.0344312 1.4348543 -6.2823297e-06 5.1629553e-39
1.0460179 1.4352031 -0.0003381047 5.1629553e-39
1.0556235 1.4342179 -5.2054725e-06 5.1629553e-39
1.0652168 1.4353763 -7.6691313e-06 5.1629553e-39
1.0748823 1.4349829 -7.4108443e-06 5.2551509e-39
1.0846326 1.4345816 -6.4373016e-06 5.2551509e-39
1.0950135 1.435341 -5.1939052e-05 5.2551509e-39
1.1043758 1.4348316 -7.6558854e-06 5.2551509e-39
1.1143683 1.434955 -7.0134797e-06 5.2551509e-39
1.1244503 1.4350809 -5.6823096e-06 5.2551509e-39
1.1346141 1.4341406 -6.7154565e-06 5.2551509e-39
1.1448693 1.4353356 -6.6094926e-06 5.2551509e-39
1.1552062 1.4349279 -5.9405961e-06 5.2551509e-39
1.1656384 1.4345137 -6.0664283e-06 5.2551509e-39
1.1761557 1.4357285 -7.4505806e-06 5.2551509e-39
1.1846355 1.43409 -6.0796738e-06 5.2551509e-39
1.195323 1.4353098 -6.1591468e-06 5.2551509e-39
1.2060968 1.4348933 -5.1856041e-06 5.2551509e-39
1.2147888 1.4348882 -7.3115029e-06 5.2551509e-39
1.2235404 1.4348841 -7.5101852e-06 5.2551509e-39
1.2345694 1.4344571 -6.7419478e-06 5.2551509e-39
1.2456902 1.4357044 -6.5565109e-06 5.2551509e-39
1.254662 1.4340216 -7.7486038e-06 5.2551509e-39
1.2636962 1.4356986 -6.8545341e-06 5.2551509e-39
1.2750841 1.4347072 -6.2253739e-06 5.2551509e-39
1.2865702 1.4348413 -8.1857042e-06 5.2551509e-39
1.2958345 1.4348358 -7.2320304e-06 5.2551509e-39
1.3051662 1.4348272 -6.298224e-06 5.2551509e-39
1.3145665 1.434822 -5.9008598e-06 5.2551509e-39
1.3240379 1.4348159 -7.7486038e-06 5.2551509e-39
1.3335763 1.4348106 -7.1525574e-06 5.2551509e-39
1.3431858 1.4348024 -6.8744025e-06 5.2551509e-39
1.3533529 1.4357578 -7.6293945e-06 5.2551509e-39
1.3644589 1.4348979 -6.6310167e-06 5.2551509e-39
1.377385 1.4356612 -7.0532165e-06 5.2551509e-39
1.3868217 1.434685 -6.2942504e-06 5.2551509e-39
1.3973317 1.4356537 -6.377697e-06 5.2551509e-39
1.4069116 1.4346706 -5.8889391e-06 5.2551509e-39
1.4150311 1.4360951 -6.2783561e-06 5.2551509e-39
1.4226936 1.4347501 -7.6492624e-06 5.2551509e-39
1.4334891 1.4357334 -7.3432921e-06 5.2551509e-39
1.4433308 1.4347349 -6.4373016e-06 5.2551509e-39
1.4542922 1.4357257 -5.8174132e-06 5.2551509e-39
1.4642879 1.4347211 -6.4373016e-06 5.2551509e-39
1.475421 1.4357207 -7.1287154e-06 5.2551509e-39
1.4855703 1.4347062 -5.543232e-06 5.2551509e-39
1.4968779 1.4357136 -6.4373016e-06 5.2551509e-39
1.5071872 1.4346919 -5.6028366e-06 5.2551509e-39
1.5153779 1.4351496 -4.7683716e-06 5.2551509e-39
1.5236254 1.4356121 -6.7353249e-06 5.2551509e-39
1.5341361 1.4345825 -6.7234041e-06 5.2551509e-39
1.5458466 1.4356055 -7.5101852e-06 5.2551509e-39
1.5565245 1.4345667 -6.3896177e-06 5.2551509e-39
1.565578 1.4360706 -6.8346658e-06 5.2551509e-39
1.574124 1.4346489 -7.132689e-06 5.2551509e-39
1.5861703 1.4356873 -6.9141388e-06 5.2551509e-39
1.5942545 1.4351114 -5.9604645e-06 5.2551509e-39
1.6023915 1.4345343 -6.2704084e-06 5.2551509e-39
1.6146795 1.4355812 -6.2584877e-06 5.2551509e-39
1.6258873 1.4345179 -6.0081484e-06 5.2551509e-39
1.6353925 1.4360595 -7.2717667e-06 5.2551509e-39
1.6443645 1.4346021 -7.212162e-06 5.2551509e-39
1.6570152 1.4356669 -7.4625013e-06 5.2551509e-39
1.6655073 1.435078 -7.8678131e-06 5.2551509e-39
1.6740532 1.4344852 -6.8426134e-06 5.2551509e-39
1.6838756 1.4360508 -6.5565109e-06 5.2551509e-39
1.693151 1.4345697 -7.212162e-06 5.2551509e-39
1.705603 1.4345608 -6.6161156e-06 5.2551509e-39
1.7150093 1.4350529 -7.5101852e-06 5.2551509e-39
1.7238462 1.4344498 -6.4134597e-06 5.2551509e-39
1.7340056 1.434043 -7.2717667e-06 5.2551509e-39
1.7435994 1.4345373 -8.2850456e-06 5.2551509e-39
1.7564785 1.434527 -6.6161156e-06 5.2551509e-39
1.7662091 1.4350268 -7.0333481e-06 5.2551509e-39
1.7760073 1.4355272 -5.9008598e-06 5.2551509e-39
1.7858665 1.434001 -8.4638596e-06 5.2551509e-39
1.7951281 1.4354209 -6.8426134e-06 5.2551509e-39
1.8057762 1.4350066 -6.5565109e-06 5.2551509e-39
1.816507 1.4345917 -7.5340272e-06 5.2551509e-39
1.8259528 1.4360299 -9.2983246e-06 5.2551509e-39
1.8361406 1.4344752 -7.8678131e-06 5.2551509e-39
1.846388 1.434986 -6.3180923e-06 5.2551509e-39
1.8532625 1.4360232 -7.2717667e-06 5.2551509e-39
1.8636327 1.4344559 -6.9141388e-06 5.2551509e-39
1.8740667 1.4349742 -8.225441e-06 5.2551509e-39
1.8845758 1.4354932 -8.1062317e-06 5.2551509e-39
1.8951468 1.4339089 -7.2717667e-06 5.2551509e-39
1.905085 1.4353806 -6.6995622e-06 5.2551509e-39
1.9165142 1.4349527 -8.1062317e-06 5.2551509e-39
1.9237001 1.4338857 -7.8678131e-06 5.2551509e-39
1.9338207 1.435372 -8.6069103e-06 5.2551509e-39
1.9454552 1.4349384 -8.1062317e-06 5.2551509e-39
1.9527721 1.4338615 -7.6293945e-06 5.2551509e-39
1.963076 1.4353596 -7.081032e-06 5.2551509e-39
1.9749267 1.4349238 -8.225441e-06 5.2551509e-39
1.9868711 1.4344846 -7.9870224e-06 5.2551509e-39
1.9973845 1.4359983 -6.3180923e-06 5.2551509e-39
2.00494 1.4349065 -5.9604645e-06 5.2551509e-39
2.0125327 1.4338109 -7.0333481e-06 5.2551509e-39
2.0232232 1.4353372 -6.5565109e-06 5.2551509e-39
2.0355208 1.4348938 -8.4638596e-06 5.2551509e-39
2.0432544 1.433787 -8.4638596e-06 5.2551509e-39
2.0541444 1.4353261 -6.9618227e-06 5.2551509e-39
2.0666716 1.4348767 -6.7949295e-06 5.2551509e-39
2.0745544 1.4337611 -8.5830688e-06 5.2551509e-39
2.0824697 1.4348689 -7.1525574e-06 5.2551509e-39
2.0944219 1.4354227 -7.390976e-06 5.2551509e-39
2.1064525 1.4337354 -9.5367432e-06 5.2551509e-39
2.1145205 1.4348545 -8.7022781e-06 5.2551509e-39
2.1226275 1.4359791 -7.9870224e-06 5.2551509e-39
2.1348674 1.434276 -7.7486038e-06 5.2551509e-39
2.1471891 1.4348391 -9.5367432e-06 5.2551509e-39
2.155452 1.4359735 -7.7486038e-06 5.2551509e-39
2.1637595 1.4348304 -9.059906e-06 5.2551509e-39
2.1721027 1.4359703 -7.390976e-06 5.2551509e-39
2.2316804 1.4347949 -7.6293945e-06 5.2551509e-39
2.2451837 1.4347337 -0.00012836834 5.2551509e-39
0.8163178 1.4422137 -5.284945e-06 5.1629553e-39
0.82542765 1.4446187 -5.4469474e-06 5.1629553e-39
0.83566064 1.4448135 -5.4717066e-06 5.1629553e-39
0.84512609 1.4450878 -5.7112088e-06 5.1629553e-39
0.85522753 1.4449353 -5.4944644e-06 5.1629553e-39
0.8648712 1.4452138 -6.7114829e-06 5.1629553e-39
0.87392217 1.4449642 -6.0200691e-06 5.1629553e-39
0.88373494 1.4452437 -5.8412552e-06 5.1629553e-39
0.89420992 1.4450898 -6.2097201e-06 5.1629553e-39
0.90421027 1.4453725 -5.7101252e-06 5.1629553e-39
0.91359937 1.4451206 -6.4969063e-06 5.1629553e-39
0.9240883 1.4449428 -6.0915945e-06 5.1629553e-39
0.93467963 1.4447622 -5.9127806e-06 5.1629553e-39
0.94468075 1.4450212 -6.9936118e-06 5.1629553e-39
0.954772 1.4452819 -6.1988831e-06 5.1629553e-39
0.96566087 1.4451014 -5.3763388e-06 5.1629553e-39
0.9766593 1.4449201 -7.05719e-06 5.1629553e-39
0.98524398 1.4455506 -5.2452087e-06 5.1629553e-39
0.99426204 1.4452105 -5.1617621e-06 5.1629553e-39
1.0055439 1.4450266 -6.1392784e-06 5.1629553e-39
1.0161994 1.4452945 -6.7287019e-06 5.1629553e-39
1.0251968 1.4456574 -6.4883911e-06 5.1629553e-39
1.0351819 1.4451377 -6.7114829e-06 5.1629553e-39
1.0457379 1.4448682 -6.1392784e-06 5.1629553e-39
1.0558963 1.4443398 -5.07491e-06 5.1629553e-39
1.0652156 1.4447042 -6.1988831e-06 5.1629553e-39
1.0746046 1.4450737 -7.1695872e-06 5.1629553e-39
1.085025 1.4445399 -6.9737434e-06 5.1629553e-39
1.0944597 1.4452004 -6.1790147e-06 5.1629553e-39
1.1043751 1.4448436 -7.236004e-06 5.1629553e-39
1.114368 1.4444799 -6.5962472e-06 5.2551509e-39
1.1240461 1.4451497 -6.1154365e-06 5.2551509e-39
1.1349059 1.4446065 -6.897109e-06 5.2551509e-39
1.1448699 1.4449836 -7.1922937e-06 5.2551509e-39
1.1549091 1.4453642 -5.7220459e-06 5.2551509e-39
1.1660576 1.444814 -6.0200691e-06 5.2551509e-39
1.1761552 1.4455003 -6.8346658e-06 5.2551509e-39
1.1846355 1.4438959 -5.9207282e-06 5.2551509e-39
1.1953236 1.4451594 -6.7684387e-06 5.2551509e-39
1.2060968 1.4447851 -5.1657357e-06 5.2551509e-39
1.2147895 1.4448158 -8.1260996e-06 5.2551509e-39
1.2235396 1.4448447 -6.6161156e-06 5.2551509e-39
1.2345695 1.4444629 -6.9671205e-06 5.2551509e-39
1.24569 1.4457544 -6.4373016e-06 5.2551509e-39
1.254662 1.4441077 -7.8280764e-06 5.2551509e-39
1.2636967 1.4458212 -7.3711076e-06 5.2551509e-39
1.2747202 1.444432 -0.00051664433 5.2551509e-39
1.286569 1.4450532 -6.8545341e-06 5.2551509e-39
1.2958341 1.4450856 -6.7750611e-06 5.2551509e-39
1.3051665 1.4451151 -6.6955886e-06 5.2551509e-39
1.314567 1.4451476 -6.4174333e-06 5.2551509e-39
1.3240374 1.4451785 -7.3711076e-06 5.2551509e-39
1.3335762 1.4452115 -7.0929527e-06 5.2551509e-39
1.3431854 1.4452415 -6.5366426e-06 5.2551509e-39
1.35238 1.4443123 -6.3419343e-06 5.2551509e-39
1.3650734 1.4448764 -7.9870224e-06 5.2551509e-39
1.3778807 1.4454472 -7.8201292e-06 5.2551509e-39
1.3873215 1.4445043 -7.1724257e-06 5.2551509e-39
1.3978341 1.4455127 -6.3896177e-06 5.2551509e-39
1.4074173 1.4445626 -5.364418e-06 5.2551509e-39
1.4150327 1.4450352 -7.8082085e-06 5.2551509e-39
1.4226934 1.445507 -7.4505806e-06 5.2551509e-39
1.4324565 1.4445499 -6.7710876e-06 5.2551509e-39
1.4433311 1.4455751 -6.8545341e-06 5.2551509e-39
1.453244 1.4446102 -5.5074693e-06 5.2551509e-39
1.4642878 1.4456443 -6.4373016e-06 5.2551509e-39
1.4743569 1.4446745 -7.2240828e-06 5.2551509e-39
1.485571 1.445715 -6.3180923e-06 5.2551509e-39
1.4957969 1.4447371 -6.2704084e-06 5.2551509e-39
1.5071874 1.4457861 -5.6028366e-06 5.2551509e-39
1.5153779 1.4444222 -4.7683716e-06 5.2551509e-39
1.5236245 1.4449114 -6.0498714e-06 5.2551509e-39
1.5346912 1.4449449 -6.4373016e-06 5.2551509e-39
1.5458467 1.4449794 -7.5101852e-06 5.2551509e-39
1.5570892 1.4450122 -6.5565109e-06 5.2551509e-39
1.5655781 1.4455104 -6.9141388e-06 5.2551509e-39
1.5746958 1.4451616 -7.5817106e-06 5.2551509e-39
1.5850196 1.4450029 -7.7962877e-06 5.2551509e-39
1.5942545 1.4446466 -5.9604645e-06 5.2551509e-39
1.6029736 1.4451486 -5.6028366e-06 5.2551509e-39
1.6146795 1.4451845 -6.2584877e-06 5.2551509e-39
1.6264797 1.4452195 -6.0200691e-06 5.2551509e-39
1.6353925 1.4457316 -7.2717667e-06 5.2551509e-39
1.6449645 1.4453743 -7.2717667e-06 5.2551509e-39
1.6558058 1.4452126 -7.5578691e-06 5.2551509e-39
1.6655073 1.4448502 -7.8678131e-06 5.2551509e-39
1.674666 1.4453651 -7.2717667e-06 5.2551509e-39
1.6838765 1.4458849 -7.2717667e-06 5.2551509e-39
1.6937708 1.4455218 -7.0095061e-06 5.2551509e-39
1.705603 1.4444666 -6.6161156e-06 5.2551509e-39
1.7150093 1.4449899 -7.5101852e-06 5.2551509e-39
1.7244798 1.4455137 -6.7353249e-06 5.2551509e-39
1.7345769 1.445014 -0.00035951615 5.2551509e-39
1.7435994 1.4445693 -8.2850456e-06 5.2551509e-39
1.7564784 1.444602 -6.6161156e-06 5.2551509e-39
1.7662097 1.4451349 -7.5101852e-06 5.2551509e-39
1.7766638 1.4447587 -6.8902968e-06 5.2551509e-39
1.7858664 1.4441739 -8.4638596e-06 5.2551509e-39
1.7957925 1.4447075 -7.3313713e-06 5.2551509e-39
1.8057762 1.4452457 -6.5565109e-06 5.2551509e-39
1.8151627 1.444658 -7.8439716e-06 5.2551509e-39
1.8259528 1.4442749 -9.2983246e-06 5.2551509e-39
1.8361408 1.4448153 -7.8678131e-06 5.2551509e-39
1.846388 1.4453603 -6.3180923e-06 5.2551509e-39
1.8532625 1.4443409 -7.2717667e-06 5.2551509e-39
1.8636317 1.4448868 -6.2584877e-06 5.2551509e-39
1.8740666 1.4454406 -8.225441e-06 5.2551509e-39
1.8852789 1.4450529 -8.3446503e-06 5.2551509e-39
1.8951479 1.4444464 -8.066495e-06 5.2551509e-39
1.9057971 1.4449996 -6.6161156e-06 5.2551509e-39
1.916514 1.4455606 -8.1062317e-06 5.2551509e-39
1.9237 1.4445175 -7.8678131e-06 5.2551509e-39
1.9345458 1.445078 -8.5830688e-06 5.2551509e-39
1.9454552 1.4456425 -8.1062317e-06 5.2551509e-39
1.9527721 1.44459 -7.6293945e-06 5.2551509e-39
1.9638135 1.4451537 -6.4969063e-06 5.2551509e-39
1.9749267 1.4435655 -8.225441e-06 5.2551509e-39
1.9853733 1.4451056 -7.7486038e-06 5.2551509e-39
1.9973845 1.4446998 -6.3180923e-06 5.2551509e-39
2.0049436 1.4436307 -8.3446503e-06 5.2551509e-39
2.0125327 1.4447383 -7.0333481e-06 5.2551509e-39
2.0239897 1.4453144 -6.7353249e-06 5.2551509e-39
2.0355208 1.443697 -8.4638596e-06 5.2551509e-39
2.0432544 1.4448166 -8.4638596e-06 5.2551509e-39
2.054925 1.4453969 -6.9141388e-06 5.2551509e-39
2.0666716 1.4437625 -6.7949295e-06 5.2551509e-39
2.0745535 1.4448942 -7.9870224e-06 5.2551509e-39
2.0824697 1.4460292 -7.1525574e-06 5.2551509e-39
2.0944219 1.4443824 -7.390976e-06 5.2551509e-39
2.1064525 1.4449754 -9.5367432e-06 5.2551509e-39
2.1145205 1.4461212 -8.7022781e-06 5.2551509e-39
2.1226275 1.4450142 -7.9870224e-06 5.2551509e-39
2.1356883 1.4445951 -9.1552738e-06 5.2551509e-39
2.1471891 1.4462147 -9.5367432e-06 5.2551509e-39
2.155452 1.445096 -7.7486038e-06 5.2551509e-39
2.1637595 1.443975 -9.059906e-06 5.2551509e-39
2.1721027 1.445137 -7.390976e-06 5.2551509e-39
2.2316804 1.4441204 -7.6293945e-06 5.2551509e-39
2.2436574 1.4452496 -0.00054370362 5.2551509e-39
2.2933543 1.4430666 -6.5565109e-06 5.2551509e-39
2.3023429 1.4442723 -6.5565109e-06 5.2551509e-39
0.8281703 1.4512122 -6.3180923e-06 5.1629553e-39
0.83666968 1.4538808 -5.1524903e-06 5.1629553e-39
0.84573001 1.4549969 -6.3896177e-06 5.1629553e-39
0.85461915 1.4547908 -5.6266786e-06 5.1629553e-39
0.86425686 1.455114 -7.1959062e-06 5.1629553e-39
0.87454128 1.4550071 -5.3102322e-06 5.1629553e-39
0.88436139 1.4553339 -6.508827e-06 5.1629553e-39
0.89357889 1.4551259 -6.1631204e-06 5.1629553e-39
0.90387595 1.4549974 -5.7339666e-06 5.1629553e-39
0.91427338 1.4548681 -6.8902968e-06 5.1629553e-39
0.92374861 1.4546542 -5.6862832e-06 5.1629553e-39
0.93402463 1.4549867 -6.719069e-06 5.1629553e-39
0.94499499 1.454877 -6.2747436e-06 5.1629553e-39
0.95528984 1.4552516 -0.00073243864 5.1629553e-39
0.96530837 1.4549971 -5.5670739e-06 5.1629553e-39
0.97630233 1.4548655 -6.8664549e-06 5.1629553e-39
0.98524427 1.4545609 -5.8213868e-06 5.1629553e-39
0.99390113 1.4552333 -5.9485437e-06 5.1629553e-39
1.0051782 1.4551008 -6.6757202e-06 5.1629553e-39
1.016569 1.4549649 -7.0214273e-06 5.1629553e-39
1.0254625 1.455647 -6.377697e-06 5.1629553e-39
1.034806 1.4553422 -6.5565109e-06 5.1629553e-39
1.0461164 1.4546613 -5.9869553e-06 5.1629553e-39
1.0553505 1.4550651 -4.8875809e-06 5.1629553e-39
1.0656011 1.4545815 -6.3180923e-06 5.1629553e-39
1.0748825 1.455279 -7.8678131e-06 5.1629553e-39
1.0846323 1.4549646 -6.5445902e-06 5.1629553e-39
1.0944598 1.4546467 -6.377697e-06 5.1629553e-39
1.103977 1.4553522 -6.2823297e-06 5.1629553e-39
1.1146551 1.4548594 -6.9822586e-06 5.1629553e-39
1.1244503 1.4552737 -5.8942369e-06 5.1629553e-39
1.1346138 1.4549552 -6.2386193e-06 5.1629553e-39
1.1448698 1.4546307 -7.1260665e-06 5.1629553e-39
1.1552058 1.4559183 -5.6425729e-06 5.1629553e-39
1.1656384 1.4550575 -6.11941e-06 5.2551509e-39
1.176156 1.4552736 -7.8678131e-06 5.2551509e-39
1.1849396 1.4545809 -6.2670028e-06 5.2551509e-39
1.1953235 1.4550083 -6.8214204e-06 5.2551509e-39
1.2060968 1.4546771 -5.1657357e-06 5.2551509e-39
1.2147892 1.4547418 -7.5896583e-06 5.2551509e-39
1.2235403 1.4548072 -7.3313713e-06 5.2551509e-39
1.2345692 1.4544683 -6.5830018e-06 5.2551509e-39
1.2456907 1.4558049 -7.132689e-06 5.2551509e-39
1.254662 1.4541935 -7.7287359e-06 5.2551509e-39
1.2636956 1.455942 -6.2187514e-06 5.2551509e-39
1.2750844 1.4550424 -6.5565109e-06 5.2551509e-39
1.2865685 1.455266 -6.2584877e-06 5.2551509e-39
1.2953694 1.4543927 -7.0095061e-06 5.2551509e-39
1.3051666 1.4554027 -6.7750611e-06 5.2551509e-39
1.314095 1.4545219 -6.1988831e-06 5.2551509e-39
1.3240366 1.4555407 -6.5167746e-06 5.2551509e-39
1.3330977 1.4546553 -7.2002413e-06 5.2551509e-39
1.3431854 1.455681 -6.6757202e-06 5.2551509e-39
1.3528665 1.4540058 -7.0532165e-06 5.2551509e-39
1.3650731 1.4554029 -7.4836944e-06 5.2551509e-39
1.3773853 1.4550524 -7.2518983e-06 5.2551509e-39
1.3873209 1.4551195 -6.6161156e-06 5.2551509e-39
1.3968285 1.4542091 -5.6505205e-06 5.2551509e-39
1.4074184 1.4552598 -6.4174333e-06 5.2551509e-39
1.4139681 1.4532764 -0.0011138589 5.2551509e-39
1.4232055 1.4554616 -7.4386598e-06 5.2551509e-39
1.4329734 1.4545399 -7.7486038e-06 5.2551509e-39
1.443851 1.4556059 -6.8426134e-06 5.2551509e-39
1.4537683 1.4546762 -5.7419143e-06 5.2551509e-39
1.4648161 1.4557531 -6.6518783e-06 5.2551509e-39
1.4748892 1.4548184 -7.3313713e-06 5.2551509e-39
1.4861073 1.4559023 -6.4373016e-06 5.2551509e-39
1.4963382 1.4549608 -6.9737434e-06 5.2551509e-39
1.5071881 1.4550323 -6.3180923e-06 5.2551509e-39
1.5153779 1.4555494 -4.7683716e-06 5.2551509e-39
1.5236238 1.4542108 -5.364418e-06 5.2551509e-39
1.5352464 1.4553133 -6.1511992e-06 5.2551509e-39
1.5458466 1.4543535 -7.5101852e-06 5.2551509e-39
1.5576537 1.4554636 -6.7234041e-06 5.2551509e-39
1.5655781 1.45495 -6.9141388e-06 5.2551509e-39
1.5735536 1.4544353 -7.7962877e-06 5.2551509e-39
1.5855955 1.4555556 -7.7486038e-06 5.2551509e-39
1.5942564 1.4541832 -7.6293945e-06 5.2551509e-39
1.603557 1.4557703 -6.1035157e-06 5.2551509e-39
1.6146793 1.4547876 -6.2584877e-06 5.2551509e-39
1.6264799 1.4548619 -6.0200691e-06 5.2551509e-39
1.6353925 1.4554037 -7.2717667e-06 5.2551509e-39
1.6437647 1.4548764 -7.1525574e-06 5.2551509e-39
1.6570152 1.455155 -7.4625013e-06 5.2551509e-39
1.6655073 1.4546226 -7.8678131e-06 5.2551509e-39
1.674666 1.455168 -7.2717667e-06 5.2551509e-39
1.6838773 1.4557194 -7.9870224e-06 5.2551509e-39
1.6925299 1.4551824 -6.2942504e-06 5.2551509e-39
1.7062285 1.4554671 -6.7472456e-06 5.2551509e-39
1.7150093 1.454927 -7.5101852e-06 5.2551509e-39
1.7244799 1.4554824 -6.7353249e-06 5.2551509e-39
1.7340038 1.4540422 -5.9604645e-06 5.2551509e-39
1.7435994 1.4546018 -8.2850456e-06 5.2551509e-39
1.7564785 1.4546772 -6.6161156e-06 5.2551509e-39
1.7662097 1.4552423 -7.5101852e-06 5.2551509e-39
1.7755361 1.4554873 -0.00012665168 5.2551509e-39
1.7858665 1.4543469 -8.4638596e-06 5.2551509e-39
1.7957929 1.4549136 -7.6889992e-06 5.2551509e-39
1.8057771 1.4554856 -7.2717667e-06 5.2551509e-39
1.8165071 1.4551415 -7.5340272e-06 5.2551509e-39
1.8259492 1.4545785 -6.6757202e-06 5.2551509e-39
1.8361408 1.4551556 -7.8678131e-06 5.2551509e-39
1.846388 1.4557346 -6.3180923e-06 5.2551509e-39
1.8532625 1.4547383 -7.2717667e-06 5.2551509e-39
1.8636317 1.4553186 -6.2584877e-06 5.2551509e-39
1.8740631 1.4538112 -5.7220459e-06 5.2551509e-39
1.8838737 1.4553382 -8.5830688e-06 5.2551509e-39
1.8951486 1.4549835 -8.4638596e-06 5.2551509e-39
1.9065101 1.4546261 -7.2717667e-06 5.2551509e-39
1.9165142 1.4561683 -8.1062317e-06 5.2551509e-39
1.9236972 1.455147 -5.7220459e-06 5.2551509e-39
1.9356807 1.4556395 -0.00027633816 5.2551509e-39
1.9454552 1.4563465 -8.1062317e-06 5.2551509e-39
1.9527721 1.4553183 -7.6293945e-06 5.2551509e-39
1.9645519 1.4549555 -6.3896177e-06 5.2551509e-39
1.9749266 1.4543676 -8.225441e-06 5.2551509e-39
1.9861223 1.4549704 -7.8678131e-06 5.2551509e-39
1.9973845 1.4555768 -6.3180923e-06 5.2551509e-39
2.0049436 1.4545326 -8.3446503e-06 5.2551509e-39
2.0125327 1.4556656 -7.0333481e-06 5.2551509e-39
2.0239902 1.454087 -7.0333481e-06 5.2551509e-39
2.0355217 1.4547015 -9.2585879e-06 5.2551509e-39
2.0432544 1.4558461 -8.4638596e-06 5.2551509e-39
2.054925 1.4542515 -6.9141388e-06 5.2551509e-39
2.0666716 1.4548702 -6.7949295e-06 5.2551509e-39
2.0745535 1.456028 -7.9870224e-06 5.2551509e-39
2.0824687 1.4549565 -6.4969063e-06 5.2551509e-39
2.095221 1.4545799 -7.2717667e-06 5.2551509e-39
2.1064525 1.4562154 -9.5367432e-06 5.2551509e-39
2.1145205 1.4551346 -8.7022781e-06 5.2551509e-39
2.1226275 1.4540491 -7.9870224e-06 5.2551509e-39
2.1340499 1.4556957 -8.3446503e-06 5.2551509e-39
2.1471891 1.4553151 -9.5367432e-06 5.2551509e-39
2.1554537 1.4542196 -8.9406967e-06 5.2551509e-39
2.1637595 1.4554056 -9.059906e-06 5.2551509e-39
2.1721036 1.4565961 -7.9274178e-06 5.2551509e-39
2.3023465 1.4514097 -8.9406967e-06 5.2551509e-39
0.8460452 1.4622564 -5.6028366e-06 5.1629553e-39
0.85522747 1.4647464 -5.2885575e-06 5.1629553e-39
0.8648712 1.4651151 -6.8426134e-06 5.1629553e-39
0.87392187 1.4649494 -5.6385993e-06 5.1629553e-39
0.88373548 1.4653214 -6.5998597e-06 5.1629553e-39
0.89424038 1.4647869 -6.3300131e-06 5.1629553e-39
0.90354317 1.4646192 -6.5445902e-06 5.1629553e-39
0.91362953 1.4649936 -6.3180923e-06 5.1629553e-39
0.92439753 1.4649341 -5.9062786e-06 5.1629553e-39
0.93467969 1.4653141 -6.067753e-06 5.1629553e-39
0.94433451 1.4651463 -6.9975854e-06 5.1629553e-39
0.95512134 1.4650635 -6.4611436e-06 5.1629553e-39
0.96601409 1.4649779 -5.1856041e-06 5.1629553e-39
0.97594625 1.4648063 -6.5207482e-06 5.1629553e-39
0.98524421 1.4650722 -5.7369471e-06 5.1629553e-39
0.9942627 1.4648087 -5.5631003e-06 5.1629553e-39
1.0048122 1.4651682 -5.3286553e-06 5.1629553e-39
1.0161991 1.4650854 -6.8306922e-06 5.1629553e-39
1.0254626 1.4648174 -6.5167746e-06 5.1629553e-39
1.0344315 1.4655422 -6.532669e-06 5.1629553e-39
1.0464952 1.4644592 -5.8650971e-06 5.1629553e-39
1.0556238 1.4651877 -5.4041543e-06 5.1629553e-39
1.0652153 1.4649193 -6.4492224e-06 5.1629553e-39
1.0748823 1.4646465 -7.5101852e-06 5.1629553e-39
1.0842416 1.4653854 -6.9379807e-06 5.1629553e-39
1.0944594 1.4640924 -5.9604645e-06 5.1629553e-39
1.104375 1.4653935 -6.4637925e-06 5.1629553e-39
1.1143683 1.4651204 -6.9538751e-06 5.1629553e-39
1.1248673 1.4650078 -0.00077426061 5.1629553e-39
1.1343222 1.4653012 -6.4883911e-06 5.1629553e-39
1.1452816 1.4648464 -6.6995622e-06 5.1629553e-39
1.155206 1.4656072 -5.7220459e-06 5.1629553e-39
1.1656387 1.4647881 -6.4240562e-06 5.1629553e-39
1.176155 1.4650444 -6.3180923e-06 5.1629553e-39
1.1846358 1.4651446 -6.4373016e-06 5.1629553e-39
1.1953233 1.4648566 -6.3445832e-06 5.1629553e-39
1.205788 1.4653307 -5.6709564e-06 5.1629553e-39
1.2147897 1.4646693 -8.4837275e-06 5.2551509e-39
1.2235402 1.4647685 -7.2320304e-06 5.2551509e-39
1.2345691 1.4644737 -6.5565109e-06 5.2551509e-39
1.2456899 1.4658542 -6.2386193e-06 5.2551509e-39
1.2546626 1.4642801 -8.4042549e-06 5.2551509e-39
1.2636961 1.4660646 -6.7353249e-06 5.2551509e-39
1.2745121 1.4646021 -6.4522028e-06 5.2551509e-39
1.2865684 1.4654793 -6.2783561e-06 5.2551509e-39
1.2958344 1.4638767 -7.132689e-06 5.2551509e-39
1.3051672 1.465691 -7.390976e-06 5.2551509e-39
1.3145672 1.4640757 -6.7154565e-06 5.2551509e-39
1.3240361 1.4659033 -6.1591468e-06 5.2551509e-39
1.3335761 1.4642783 -6.8147979e-06 5.2551509e-39
1.3436676 1.4653434 -6.6041948e-06 5.2551509e-39
1.3528662 1.4644837 -6.7353249e-06 5.2551509e-39
1.3656851 1.4653887 -7.0482492e-06 5.2551509e-39
1.3768899 1.4646524 -6.9856642e-06 5.2551509e-39
1.3873211 1.4657356 -7.0532165e-06 5.2551509e-39
1.3973318 1.464069 -6.5366426e-06 5.2551509e-39
1.4074179 1.4659551 -5.9207282e-06 5.2551509e-39
1.4150319 1.4646996 -7.0333481e-06 5.2551509e-39
1.4221821 1.4642384 -8.2015995e-06 5.2551509e-39
1.4329726 1.4653369 -6.8942704e-06 5.2551509e-39
1.4428115 1.4644492 -6.9618227e-06 5.2551509e-39
1.4537683 1.4655572 -5.6823096e-06 5.2551509e-39
1.4637606 1.4646647 -7.05719e-06 5.2551509e-39
1.4748892 1.4657837 -7.3313713e-06 5.2551509e-39
1.4850347 1.4648827 -6.1988831e-06 5.2551509e-39
1.4968789 1.4651901 -7.367134e-06 5.2551509e-39
1.5066757 1.4637195 -0.0010727877 5.2551509e-39
1.5153779 1.4648221 -4.7683716e-06 5.2551509e-39
1.5236245 1.4653716 -6.0995421e-06 5.2551509e-39
1.534264 1.4650799 -0.0011668387 5.2551509e-39
1.5458466 1.4656024 -7.5101852e-06 5.2551509e-39
1.5565245 1.4646775 -6.3896177e-06 5.2551509e-39
1.5655781 1.4643898 -6.9141388e-06 5.2551509e-39
1.5741234 1.4649464 -6.6955886e-06 5.2551509e-39
1.5862739 1.4656928 -0.0014999857 5.2551509e-39
1.5942564 1.4656256 -7.6293945e-06 5.2551509e-39
1.6023916 1.4651337 -6.3419343e-06 5.2551509e-39
1.615268 1.4654547 -6.9379807e-06 5.2551509e-39
1.6264797 1.4645042 -6.0200691e-06 5.2551509e-39
1.6353925 1.4650757 -7.2717667e-06 5.2551509e-39
1.6443645 1.4656485 -7.212162e-06 5.2551509e-39
1.6558044 1.4646914 -6.3657762e-06 5.2551509e-39
1.6655073 1.4643949 -7.8678131e-06 5.2551509e-39
1.6746659 1.4649709 -7.2717667e-06 5.2551509e-39
1.6838773 1.4655527 -7.9870224e-06 5.2551509e-39
1.6937704 1.4652542 -6.6995622e-06 5.2551509e-39
1.7049786 1.4651654 -7.2717667e-06 5.2551509e-39
1.7150093 1.464864 -7.5101852e-06 5.2551509e-39
1.7244803 1.4654514 -7.1724257e-06 5.2551509e-39
1.7340037 1.4640425 -5.9604645e-06 5.2551509e-39
1.7435986 1.4646332 -7.6293945e-06 5.2551509e-39
1.7564787 1.4647522 -6.6161156e-06 5.2551509e-39
1.7662097 1.4653497 -7.5101852e-06 5.2551509e-39
1.7766628 1.4650422 -6.1035157e-06 5.2551509e-39
1.7858654 1.4645189 -7.5499215e-06 5.2551509e-39
1.7957928 1.4651196 -7.6889992e-06 5.2551509e-39
1.8057779 1.4657255 -7.9870224e-06 5.2551509e-39
1.8151633 1.4651994 -8.3684918e-06 5.2551509e-39
1.8259492 1.464885 -6.6757202e-06 5.2551509e-39
1.8368223 1.4645728 -8.1300732e-06 5.2551509e-39
1.8454112 1.4640965 -0.00092156435 5.2551509e-39
1.8532625 1.4651356 -7.2717667e-06 5.2551509e-39
1.8643252 1.4648187 -6.1511992e-06 5.2551509e-39
1.8740631 1.4642776 -5.7220459e-06 5.2551509e-39
1.8845763 1.4648976 -8.4638596e-06 5.2551509e-39
1.8951486 1.4655203 -8.4638596e-06 5.2551509e-39
1.9050859 1.4649762 -7.2240828e-06 5.2551509e-39
1.9165142 1.4646544 -8.1062317e-06 5.2551509e-39
1.9236982 1.463653 -6.3180923e-06 5.2551509e-39
1.9338201 1.4652345 -8.3208088e-06 5.2551509e-39
1.9454552 1.4649098 -8.1062317e-06 5.2551509e-39
1.9527721 1.463901 -7.6293945e-06 5.2551509e-39
1.9630753 1.4654946 -6.6041948e-06 5.2551509e-39
1.9749267 1.4651698 -8.225441e-06 5.2551509e-39
1.9868711 1.464842 -7.9870224e-06 5.2551509e-39
1.9973845 1.4664537 -6.3180923e-06 5.2551509e-39
2.005518 1.466771 -0.0010782237 5.2551509e-39
2.0125327 1.4644074 -7.0333481e-06 5.2551509e-39
2.0239899 1.4650525 -7.0333481e-06 5.2551509e-39
2.0355225 1.4657059 -9.6559525e-06 5.2551509e-39
2.0432544 1.4646698 -8.4638596e-06 5.2551509e-39
2.0557065 1.4643321 -7.3432921e-06 5.2551509e-39
2.0666716 1.4659777 -6.7949295e-06 5.2551509e-39
2.0745535 1.4649349 -7.9870224e-06 5.2551509e-39
2.0824678 1.4638839 -5.8412552e-06 5.2551509e-39
2.0931654 1.4651734 -0.00032696073 5.2551509e-39
2.1064525 1.4652073 -9.5367432e-06 5.2551509e-39
2.1145205 1.464148 -8.7022781e-06 5.2551509e-39
2.1226275 1.465343 -7.9870224e-06 5.2551509e-39
2.1348674 1.4660126 -7.7486038e-06 5.2551509e-39
2.1471891 1.4644156 -9.5367432e-06 5.2551509e-39
2.1554537 1.463342 -8.9406967e-06 5.2551509e-39
2.1637595 1.4668362 -9.059906e-06 5.2551509e-39
2.1973867 1.4671316 -7.8678131e-06 5.2551509e-39
2.2058959 1.4660488 -7.1525574e-06 5.2551509e-39
2.2844164 1.4679015 -1.001358e-05 5.2551509e-39
2.2933543 1.4644182 -6.5565109e-06 5.2551509e-39
2.3023465 1.46568 -8.9406967e-06 5.2551509e-39
0.85812902 1.4716134 -6.3180923e-06 5.1629553e-39
0.86495185 1.4737719 -7.5995922e-06 5.1629553e-39
0.874542 1.4749992 -6.2747436e-06 5.1629553e-39
0.88436031 1.4754149 -4.684925e-06 5.1629553e-39
0.89360881 1.4748174 -6.4698133e-06 5.1629553e-39
0.90417951 1.474806 -5.732883e-06 5.1629553e-39
0.91427314 1.4752293 -6.532669e-06 5.1629553e-39
0.92374879 1.4751043 -6.0558318e-06 5.1629553e-39
0.9343363 1.4750714 -6.4611436e-06 5.1629553e-39
0.94502723 1.4750369 -6.9737434e-06 5.1629553e-39
0.95477229 1.4749095 -6.5684317e-06 5.1629553e-39
0.96566069 1.4748733 -5.3167341e-06 5.1629553e-39
0.97665894 1.4748379 -6.4134597e-06 5.1629553e-39
0.98524523 1.4755853 -7.1128211e-06 5.1629553e-39
0.99459136 1.4748882 -5.1259995e-06 5.1629553e-39
1.0051775 1.4747912 -4.9802993e-06 5.1629553e-39
1.015831 1.475202 -7.390976e-06 5.1629553e-39
1.0257283 1.4748118 -6.4373016e-06 5.1629553e-39
1.034806 1.4752902 -5.9074828e-06 5.1629553e-39
1.0461165 1.4747114 -6.5207482e-06 5.1629553e-39
1.0556241 1.4744792 -5.9405961e-06 5.1629553e-39
1.0648313 1.4752527 -6.8068503e-06 5.1629553e-39
1.0751599 1.4748564 -7.9870224e-06 5.1629553e-39
1.0846329 1.4753447 -6.7419478e-06 5.1629553e-39
1.0947421 1.4743875 -6.69275e-06 5.1629553e-39
1.1043752 1.4748795 -6.7684387e-06 5.1629553e-39
1.114082 1.4753782 -7.5101852e-06 5.1629553e-39
1.1244504 1.4744052 -5.7617822e-06 5.1629553e-39
1.1346136 1.4757677 -6.2187514e-06 5.1629553e-39
1.1448698 1.4749993 -7.1790482e-06 5.1629553e-39
1.1552067 1.4752966 -6.6359839e-06 5.1629553e-39
1.1656381 1.4750588 -6.2584877e-06 5.1629553e-39
1.1761543 1.474816 -5.7220459e-06 5.1629553e-39
1.1846358 1.4749508 -6.298224e-06 5.1629553e-39
1.1953235 1.4747061 -6.7419478e-06 5.1629553e-39
1.2060971 1.4761086 -5.622705e-06 5.1629553e-39
1.214788 1.4745936 -6.2584877e-06 5.1629553e-39
1.2235397 1.4747294 -6.6161156e-06 5.1629553e-39
1.2345697 1.47448 -7.1525574e-06 5.1629553e-39
1.24569 1.4759045 -6.3975654e-06 5.1629553e-39
1.2546626 1.4743661 -8.5234642e-06 5.1629553e-39
1.263697 1.4761876 -7.7684717e-06 5.1629553e-39
1.2750845 1.4742457 -6.8081749e-06 5.2551509e-39
1.2865686 1.4756927 -6.4770379e-06 5.2551509e-39
1.2958349 1.4741274 -7.4903169e-06 5.2551509e-39
1.3051673 1.4759787 -7.5101852e-06 5.2551509e-39
1.3145667 1.4744004 -6.1591468e-06 5.2551509e-39
1.3245106 1.4754958 -5.1975248e-06 5.2551509e-39
1.3335762 1.4746796 -7.0929527e-06 5.2551509e-39
1.3431854 1.4748216 -6.6955886e-06 5.2551509e-39
1.352867 1.4749626 -7.470449e-06 5.2551509e-39
1.3650723 1.4752882 -6.7287019e-06 5.2551509e-39
1.3773851 1.47444 -7.0730844e-06 5.2551509e-39
1.3878198 1.4755632 -6.9141388e-06 5.2551509e-39
1.3973316 1.4747243 -6.1392784e-06 5.2551509e-39
1.4079243 1.4758573 -6.0081484e-06 5.2551509e-39
1.4150305 1.4754246 -5.7617822e-06 5.2551509e-39
1.4226938 1.4741926 -7.9274178e-06 5.2551509e-39
1.4334896 1.4753344 -7.7247623e-06 5.2551509e-39
1.4433311 1.47448 -6.7750611e-06 5.2551509e-39
1.4542919 1.4756304 -5.364418e-06 5.2551509e-39
1.4642893 1.4747742 -7.8280764e-06 5.2551509e-39
1.4754214 1.4759356 -7.4386598e-06 5.2551509e-39
1.485571 1.47507 -6.3180923e-06 5.2551509e-39
1.4957966 1.4742007 -6.0081484e-06 5.2551509e-39
1.5071882 1.4753723 -6.3180923e-06 5.2551509e-39
1.5153779 1.4740947 -4.7683716e-06 5.2551509e-39
1.5241756 1.4757034 -6.1035157e-06 5.2551509e-39
1.5346904 1.4748224 -5.7220459e-06 5.2551509e-39
1.5458474 1.4749771 -8.225441e-06 5.2551509e-39
1.5570893 1.4751291 -6.7949295e-06 5.2551509e-39
1.5655781 1.4738296 -6.9141388e-06 5.2551509e-39
1.5746937 1.4754639 -5.7935713e-06 5.2551509e-39
1.5855955 1.4745684 -7.7486038e-06 5.2551509e-39
1.5942564 1.4751608 -7.6293945e-06 5.2551509e-39
1.6035573 1.4749027 -6.4134597e-06 5.2551509e-39
1.6140926 1.474852 -6.8902968e-06 5.2551509e-39
1.6270735 1.4752171 -6.8187715e-06 5.2551509e-39
1.6353925 1.474748 -7.2717667e-06 5.2551509e-39
1.6443651 1.4753507 -7.5399876e-06 5.2551509e-39
1.6564087 1.4755096 -6.0200691e-06 5.2551509e-39
1.6655073 1.4741672 -7.8678131e-06 5.2551509e-39
1.674666 1.4747736 -7.2717667e-06 5.2551509e-39
1.6838773 1.4753861 -7.9870224e-06 5.2551509e-39
1.6925299 1.4749069 -6.2942504e-06 5.2551509e-39
1.70671 1.4753656 -0.00080359244 5.2551509e-39
1.7150093 1.4748012 -7.5101852e-06 5.2551509e-39
1.7244806 1.4754204 -7.390976e-06 5.2551509e-39
1.7340056 1.4740443 -7.2717667e-06 5.2551509e-39
1.7435976 1.4746647 -6.9737434e-06 5.2551509e-39
1.7564785 1.4748273 -6.6161156e-06 5.2551509e-39
1.7662097 1.4754572 -7.5101852e-06 5.2551509e-39
1.7753519 1.4749647 -5.6982039e-06 5.2551509e-39
1.7858632 1.47469 -5.7220459e-06 5.2551509e-39
1.7957927 1.4753256 -7.6889992e-06 5.2551509e-39
1.8057779 1.4759648 -7.9870224e-06 5.2551509e-39
1.8158357 1.4745526 -8.3446503e-06 5.2551509e-39
1.8259492 1.4751912 -6.6757202e-06 5.2551509e-39
1.8354601 1.4746921 -8.3923342e-06 5.2551509e-39
1.8463889 1.4744092 -6.9141388e-06 5.2551509e-39
1.8532625 1.4755329 -7.2717667e-06 5.2551509e-39
1.8629385 1.4750273 -6.3657762e-06 5.2551509e-39
1.8740631 1.4747441 -5.7220459e-06 5.2551509e-39
1.8852774 1.4744623 -7.2956086e-06 5.2551509e-39
1.8951486 1.4760568 -8.4638596e-06 5.2551509e-39
1.9057981 1.4746022 -7.2717667e-06 5.2551509e-39
1.916514 1.4752623 -8.1062317e-06 5.2551509e-39
1.9236981 1.4742845 -6.3180923e-06 5.2551509e-39
1.9345448 1.4749471 -7.8678131e-06 5.2551509e-39
1.9454552 1.475614 -8.1062317e-06 5.2551509e-39
1.9527735 1.4746304 -8.5035963e-06 5.2551509e-39
1.9638135 1.4752964 -6.4969063e-06 5.2551509e-39
1.9749267 1.4738115 -8.225441e-06 5.2551509e-39
1.9853733 1.475449 -7.7486038e-06 5.2551509e-39
1.9973845 1.4751551 -6.3180923e-06 5.2551509e-39
2.0049436 1.4741564 -8.3446503e-06 5.2551509e-39
2.0125327 1.4753348 -7.0333481e-06 5.2551509e-39
2.0239902 1.476018 -7.0333481e-06 5.2551509e-39
2.0355189 1.4745064 -7.2717667e-06 5.2551509e-39
2.0432544 1.4734936 -8.4638596e-06 5.2551509e-39
2.0541453 1.4751639 -7.6770784e-06 5.2551509e-39
2.0666733 1.474865 -8.1062317e-06 5.2551509e-39
2.0745535 1.4738419 -7.9870224e-06 5.2551509e-39
2.0824683 1.4750446 -6.2783561e-06 5.2551509e-39
2.0944219 1.4757422 -7.390976e-06 5.2551509e-39
2.1064525 1.4741993 -9.5367432e-06 5.2551509e-39
2.1145205 1.4754151 -8.7022781e-06 5.2551509e-39
2.1226275 1.4766366 -7.9870224e-06 5.2551509e-39
2.1348674 1.4750803 -7.7486038e-06 5.2551509e-39
2.1471872 1.4735146 -8.3446503e-06 5.2551509e-39
2.1554537 1.4747452 -8.9406967e-06 5.2551509e-39
2.1637595 1.4759808 -9.059906e-06 5.2551509e-39
2.2058997 1.4729939 -9.5367432e-06 5.2551509e-39
2.2844164 1.4750009 -1.001358e-05 5.2551509e-39
2.2932994 1.4730219 -0.0011365172 5.2551509e-39
2.3023465 1.4728152 -8.9406967e-06 5.2551509e-39
0.87505853 1.4824262 -5.2750111e-06 5.1629553e-39
0.88403255 1.4849483 -5.4836273e-06 5.1629553e-39
0.8942405 1.4849617 -6.4492224e-06 5.1629553e-39
0.90354311 1.4848804 -6.4492224e-06 5.1629553e-39
0.91362882 1.4853477 -5.1151624e-06 5.1629553e-39
0.92442924 1.4849067 -6.6041948e-06 5.1629553e-39
0.93399364 1.4848238 -6.508827e-06 5.1629553e-39
0.94436479 1.4852982 -5.884604e-06 5.1629553e-39
0.9554714 1.4848493 -6.222725e-06 5.1629553e-39
0.96530879 1.4847648 -5.9723852e-06 5.1629553e-39
0.97597843 1.4852471 -6.6432085e-06 5.1629553e-39
0.98524427 1.4845937 -5.8412552e-06 5.1629553e-39
0.99390078 1.4853811 -5.6028366e-06 5.1629553e-39
1.0055095 1.4849212 -4.9742785e-06 5.1629553e-39
1.0161997 1.4848734 -7.2055391e-06 5.1629553e-39
1.0251968 1.4853915 -6.5394811e-06 5.1629553e-39
1.0351814 1.4850442 -6.1511992e-06 5.1629553e-39
1.045738 1.4849581 -6.4611436e-06 5.1629553e-39
1.0558965 1.4846056 -5.3814479e-06 5.1629553e-39
1.0652163 1.4851316 -6.9008934e-06 5.1629553e-39
1.0743645 1.4854481 -0.0010486046 5.1629553e-39
1.0846334 1.4847522 -7.4307122e-06 5.1629553e-39
1.0941775 1.4852846 -6.011554e-06 5.1629553e-39
1.1047735 1.4849274 -6.8783761e-06 5.1629553e-39
1.1143683 1.4857578 -7.1525574e-06 5.1629553e-39
1.1249104 1.4842858 -0.00067564182 5.1629553e-39
1.1346139 1.4853745 -6.4174333e-06 5.1629553e-39
1.1448699 1.4846468 -7.2055391e-06 5.1629553e-39
1.155206 1.4849844 -5.8213868e-06 5.1629553e-39
1.1656389 1.4853301 -6.5830018e-06 5.1629553e-39
1.1761547 1.4845887 -6.2187514e-06 5.1629553e-39
1.1846359 1.4847569 -6.45717e-06 5.1629553e-39
1.1953237 1.4845549 -6.8479112e-06 5.1629553e-39
1.2060963 1.4859996 -4.7683716e-06 5.1629553e-39
1.2147882 1.4845206 -6.5565109e-06 5.1629553e-39
1.2239729 1.4843396 -5.9953651e-05 5.1629553e-39
1.2345693 1.4844851 -6.8081749e-06 5.1629553e-39
1.2456902 1.4859548 -6.5565109e-06 5.1629553e-39
1.2546608 1.4844497 -6.45717e-06 5.1629553e-39
1.264684 1.485514 -0.00090086722 5.1629553e-39
1.2750841 1.4844129 -6.5300201e-06 5.1629553e-39
1.2865695 1.4859071 -7.2518983e-06 5.1629553e-39
1.2958342 1.484377 -6.8545341e-06 5.1629553e-39
1.3056349 1.4855034 -6.6280363e-06 5.1629553e-39
1.3145672 1.4847261 -6.8545341e-06 5.1629553e-39
1.3240362 1.4849037 -6.2187514e-06 5.1629553e-39
1.3335768 1.4850812 -7.6095262e-06 5.1629553e-39
1.3427033 1.4842947 -6.8664549e-06 5.2551509e-39
1.3528663 1.4854401 -6.8942704e-06 5.2551509e-39
1.365073 1.4852302 -6.6161156e-06 5.2551509e-39
1.3773855 1.4850163 -7.5300536e-06 5.2551509e-39
1.3868226 1.4842165 -6.9856642e-06 5.2551509e-39
1.3973318 1.4853806 -6.6955886e-06 5.2551509e-39
1.406912 1.484576 -6.1750411e-06 5.2551509e-39
1.4150304 1.4861507 -5.4836273e-06 5.2551509e-39
1.4226941 1.4849499 -8.0267591e-06 5.2551509e-39
1.432457 1.4841355 -7.1048735e-06 5.2551509e-39
1.4433311 1.4853195 -6.8545341e-06 5.2551509e-39
1.4532448 1.4845005 -6.1511992e-06 5.2551509e-39
1.4650012 1.4854254 -0.0010025866 5.1629553e-39
1.4743572 1.4848737 -7.4863433e-06 5.2551509e-39
1.4861071 1.4852628 -6.1988831e-06 5.2551509e-39
1.4963366 1.4844289 -5.4836273e-06 5.2551509e-39
1.507733 1.4856453 -6.532669e-06 5.2551509e-39
1.5153779 1.4852219 -4.7683716e-06 5.2551509e-39
1.5230734 1.4848001 -6.1750411e-06 5.2551509e-39
1.5352457 1.4851967 -5.5789947e-06 5.2551509e-39
1.5458475 1.4843512 -8.225441e-06 5.2551509e-39
1.5576544 1.4855872 -7.2956086e-06 5.2551509e-39
1.5663766 1.4842734 -0.0005539665 5.2551509e-39
1.5735501 1.4847243 -4.8160555e-06 5.2551509e-39
1.5861709 1.4851309 -7.4386598e-06 5.2551509e-39
1.5942564 1.4846959 -7.6293945e-06 5.2551509e-39
1.6023916 1.4842581 -6.3419343e-06 5.2551509e-39
1.6146803 1.4855185 -6.9141388e-06 5.2551509e-39
1.6258881 1.4846488 -6.532669e-06 5.2551509e-39
1.6353925 1.4844199 -7.2717667e-06 5.2551509e-39
1.6443654 1.4850531 -7.8678131e-06 5.2551509e-39
1.6564096 1.4852525 -6.8545341e-06 5.2551509e-39
1.6655078 1.4858946 -8.3446503e-06 5.2551509e-39
1.674666 1.4845766 -7.2717667e-06 5.2551509e-39
1.6838773 1.4852197 -7.9870224e-06 5.2551509e-39
1.6937704 1.484987 -6.6995622e-06 5.2551509e-39
1.7049773 1.4849715 -6.1750411e-06 5.2551509e-39
1.7150093 1.4847382 -7.5101852e-06 5.2551509e-39
1.7244806 1.4853889 -7.390976e-06 5.2551509e-39
1.7340056 1.4840446 -7.2717667e-06 5.2551509e-39
1.7435977 1.4846971 -6.9737434e-06 5.2551509e-39
1.7564788 1.4849027 -6.8744025e-06 5.2551509e-39
1.7662097 1.4855647 -7.5101852e-06 5.2551509e-39
1.7766626 1.4853268 -6.1035157e-06 5.2551509e-39
1.7858633 1.4848629 -5.7220459e-06 5.2551509e-39
1.7957928 1.4855317 -7.6889992e-06 5.2551509e-39
1.8057779 1.4841561 -7.9870224e-06 5.2551509e-39
1.8158356 1.4848253 -8.3446503e-06 5.2551509e-39
1.8259492 1.4854976 -6.6757202e-06 5.2551509e-39
1.8368216 1.4852573 -7.6055526e-06 5.2551509e-39
1.8463899 1.4847842 -7.5101852e-06 5.2551509e-39
1.8532625 1.48593 -7.2717667e-06 5.2551509e-39
1.8636323 1.4845278 -6.5565109e-06 5.2551509e-39
1.8740631 1.4852104 -5.7220459e-06 5.2551509e-39
1.8838711 1.4847338 -6.4611436e-06 5.2551509e-39
1.8951486 1.4844861 -8.4638596e-06 5.2551509e-39
1.905798 1.4851742 -7.2717667e-06 5.2551509e-39
1.9165142 1.48587 -8.1062317e-06 5.2551509e-39
1.9236982 1.4849162 -6.3180923e-06 5.2551509e-39
1.9352697 1.4846666 -7.7486038e-06 5.2551509e-39
1.9454552 1.4863179 -8.1062317e-06 5.2551509e-39
1.9527739 1.4853592 -8.9406967e-06 5.2551509e-39
1.9645531 1.4851055 -7.1048735e-06 5.2551509e-39
1.9749266 1.4846138 -8.225441e-06 5.2551509e-39
1.9861227 1.485321 -8.225441e-06 5.2551509e-39
1.9973845 1.4838567 -6.3180923e-06 5.2551509e-39
2.0049436 1.4850584 -8.3446503e-06 5.2551509e-39
2.0125327 1.4862622 -7.0333481e-06 5.2551509e-39
2.0239902 1.4847903 -7.0333481e-06 5.2551509e-39
2.0355189 1.4855102 -7.2717667e-06 5.2551509e-39
2.0432544 1.4845229 -8.4638596e-06 5.2551509e-39
2.0549259 1.4852438 -7.5101852e-06 5.2551509e-39
2.0666733 1.4837511 -8.1062317e-06 5.2551509e-39
2.0745535 1.4849757 -7.9870224e-06 5.2551509e-39
2.0824697 1.4862053 -7.1525574e-06 5.2551509e-39
2.0944226 1.4847027 -7.9870224e-06 5.2551509e-39
2.1064525 1.4854393 -9.5367432e-06 5.2551509e-39
2.1145205 1.4866817 -8.7022781e-06 5.2551509e-39
2.1226275 1.4856718 -7.9870224e-06 5.2551509e-39
2.1348674 1.4841479 -7.7486038e-06 5.2551509e-39
2.1471856 1.4848889 -7.1525574e-06 5.2551509e-39
2.1554537 1.4861481 -8.9406967e-06 5.2551509e-39
2.1637595 1.4851253 -9.059906e-06 5.2551509e-39
2.1721046 1.4863887 -8.4638596e-06 5.2551509e-39
2.1804895 1.4876574 -7.2717667e-06 5.2551509e-39
2.2578478 1.487628 -6.5565109e-06 5.2551509e-39
2.2666576 1.4889327 -6.4373016e-06 5.2551509e-39
2.2933543 1.481025 -6.5565109e-06 5.2551509e-39
0.8873105 1.4914837 -3.9339066e-06 5.1629553e-39
0.89432287 1.4937378 -6.4522028e-06 5.1629553e-39
0.90417957 1.4950738 -5.9062786e-06 5.1629553e-39
0.91393524 1.4950705 -5.1392449e-06 5.1629553e-39
0.92377973 1.4950707 -6.5131621e-06 5.1629553e-39
0.93468016 1.4946744 -6.8068503e-06 5.1629553e-39
0.94467956 1.4951568 -5.2054725e-06 5.1629553e-39
0.95480371 1.4951576 -6.6648831e-06 5.1629553e-39
0.96601468 1.4947553 -5.9247018e-06 5.1629553e-39
0.97630227 1.495247 -6.4373016e-06 5.1629553e-39
0.98524475 1.4951057 -6.5118074e-06 5.1629553e-39
0.99426311 1.4949622 -6.1061646e-06 5.1629553e-39
1.0048124 1.4954617 -5.4121019e-06 5.1629553e-39
1.0165688 1.4945492 -6.6280363e-06 5.1629553e-39
1.0254626 1.4953858 -6.5565109e-06 5.1629553e-39
1.0348058 1.4952422 -6.1154365e-06 5.1629553e-39
1.0461168 1.494758 -6.5300201e-06 5.1629553e-39
1.0553511 1.4953221 -5.7901657e-06 5.1629553e-39
1.0652162 1.4944606 -6.8479112e-06 5.1629553e-39
1.0748814 1.4958715 -6.5366426e-06 5.1629553e-39
1.0850251 1.4947178 -7.1763993e-06 5.1629553e-39
1.0944599 1.4955796 -6.4969063e-06 5.1629553e-39
1.1043741 1.4949049 -5.3114363e-06 5.1629553e-39
1.1143687 1.495284 -7.5101852e-06 5.1629553e-39
1.1244508 1.4951339 -6.8187715e-06 5.1629553e-39
1.1346136 1.4949805 -6.0598054e-06 5.1629553e-39
1.1448689 1.4948294 -6.5684317e-06 5.1629553e-39
1.1552063 1.4946734 -6.1392784e-06 5.1629553e-39
1.1656389 1.4950607 -6.8479112e-06 5.1629553e-39
1.1761547 1.494361 -6.1591468e-06 5.1629553e-39
1.1843321 1.4953145 -6.7778997e-06 5.1629553e-39
1.1953237 1.4944038 -6.8876479e-06 5.1629553e-39
1.2060971 1.4958924 -5.5631003e-06 5.1629553e-39
1.2147876 1.4944466 -5.9803328e-06 5.1629553e-39
1.2232269 1.4954164 -7.6975139e-06 5.1629553e-39
1.2345691 1.4944905 -6.4505471e-06 5.1629553e-39
1.2456908 1.4960055 -7.291635e-06 5.1629553e-39
1.2546616 1.4945364 -7.1525574e-06 5.1629553e-39
1.2636968 1.4947457 -7.4505806e-06 5.1629553e-39
1.2750846 1.4945807 -6.7816841e-06 5.1629553e-39
1.2865684 1.496119 -6.1392784e-06 5.1629553e-39
1.295833 1.494626 -5.543232e-06 5.1629553e-39
1.3051666 1.4948401 -6.8744025e-06 5.1629553e-39
1.3145669 1.4950508 -6.2584877e-06 5.1629553e-39
1.3235613 1.4943055 -6.4134597e-06 5.1629553e-39
1.3335766 1.495482 -7.3115029e-06 5.1629553e-39
1.3431858 1.4939593 -7.0730844e-06 5.1629553e-39
1.3528668 1.4959188 -7.390976e-06 5.1629553e-39
1.3644593 1.4945368 -7.1674585e-06 5.1629553e-39
1.3773855 1.4955922 -7.4108443e-06 5.1629553e-39
1.3873215 1.4940443 -7.132689e-06 5.1629553e-39
1.3973318 1.4960362 -6.4969063e-06 5.1629553e-39
1.4074181 1.4944779 -6.0200691e-06 5.2551509e-39
1.415031 1.49509 -6.0796738e-06 5.2551509e-39
1.4226936 1.4957064 -7.5697899e-06 5.2551509e-39
1.4327189 1.4939994 -0.00015372572 5.1629553e-39
1.4438517 1.4953587 -7.4386598e-06 5.2551509e-39
1.4537681 1.4945735 -5.5829682e-06 5.2551509e-39
1.4648167 1.4958127 -7.1525574e-06 5.2551509e-39
1.4748892 1.4950252 -7.4108443e-06 5.2551509e-39
1.4850341 1.4942316 -5.6982039e-06 5.2551509e-39
1.4963368 1.4954802 -5.7419143e-06 5.2551509e-39
1.5066432 1.4946843 -6.1035157e-06 5.2551509e-39
1.5153779 1.4944944 -4.7683716e-06 5.2551509e-39
1.5236245 1.495132 -6.1392784e-06 5.2551509e-39
1.5341351 1.4943261 -5.8650971e-06 5.2551509e-39
1.545846 1.4955987 -6.7949295e-06 5.2551509e-39
1.5565255 1.4947889 -7.2479247e-06 5.2551509e-39
1.5655798 1.4945984 -8.3446503e-06 5.2551509e-39
1.5741218 1.495243 -5.1856041e-06 5.2551509e-39
1.5850188 1.4944251 -6.9141388e-06 5.2551509e-39
1.5942564 1.4961382 -7.6293945e-06 5.2551509e-39
1.6029744 1.4948832 -6.377697e-06 5.2551509e-39
1.6146803 1.4951216 -6.9141388e-06 5.2551509e-39
1.6264807 1.495361 -6.6757202e-06 5.2551509e-39
1.6353925 1.494092 -7.2717667e-06 5.2551509e-39
1.6443653 1.4947549 -7.8678131e-06 5.2551509e-39
1.6564097 1.4949945 -6.8545341e-06 5.2551509e-39
1.6655073 1.4956664 -7.9274178e-06 5.2551509e-39
1.6752787 1.495471 -7.4863433e-06 5.2551509e-39
1.6838773 1.4950529 -7.9870224e-06 5.2551509e-39
1.6925299 1.4946315 -6.2942504e-06 5.2551509e-39
1.7062277 1.4950979 -6.1750411e-06 5.2551509e-39
1.7150093 1.4946753 -7.5101852e-06 5.2551509e-39
1.7244806 1.4953575 -7.390976e-06 5.2551509e-39
1.7340056 1.4940448 -7.2717667e-06 5.2551509e-39
1.7435976 1.4947292 -6.9737434e-06 5.2551509e-39
1.7564795 1.4949784 -7.390976e-06 5.2551509e-39
1.7662097 1.4956722 -7.5101852e-06 5.2551509e-39
1.7753525 1.4952412 -6.222725e-06 5.2551509e-39
1.7858632 1.4950356 -5.7220459e-06 5.2551509e-39
1.7964566 1.4948326 -7.6770784e-06 5.2551509e-39
1.8057779 1.4943953 -7.9870224e-06 5.2551509e-39
1.8158357 1.4950979 -8.3446503e-06 5.2551509e-39
1.8259492 1.4958038 -6.6757202e-06 5.2551509e-39
1.8354588 1.4953668 -7.3432921e-06 5.2551509e-39
1.8463899 1.4951586 -7.5101852e-06 5.2551509e-39
1.8532625 1.4942477 -7.2717667e-06 5.2551509e-39
1.8636327 1.4949598 -6.8545341e-06 5.2551509e-39
1.8740649 1.4956784 -7.0333481e-06 5.2551509e-39
1.8845727 1.4942989 -5.7816505e-06 5.2551509e-39
1.8951486 1.4950228 -8.4638596e-06 5.2551509e-39
1.9057982 1.4957464 -7.2717667e-06 5.2551509e-39
1.9165142 1.4943562 -8.1062317e-06 5.2551509e-39
1.9236981 1.4955479 -6.3180923e-06 5.2551509e-39
1.9338176 1.4950956 -6.5565109e-06 5.2551509e-39
1.9454552 1.4948812 -8.1062317e-06 5.2551509e-39
1.9527739 1.493942 -8.9406967e-06 5.2551509e-39
1.963076 1.4956309 -7.081032e-06 5.2551509e-39
1.9749267 1.4954159 -8.225441e-06 5.2551509e-39
1.9861224 1.4939923 -7.9870224e-06 5.2551509e-39
1.9973856 1.4947344 -7.1525574e-06 5.2551509e-39
2.0049436 1.4959606 -8.3446503e-06 5.2551509e-39
2.0125327 1.4950041 -7.0333481e-06 5.2551509e-39
2.0247562 1.4947836 -7.0333481e-06 5.2551509e-39
2.0355189 1.4965141 -7.2717667e-06 5.2551509e-39
2.0432527 1.4955513 -7.2717667e-06 5.2551509e-39
2.0549259 1.4940987 -7.5101852e-06 5.2551509e-39
