# .PCD v0.7 - Point Cloud Data file format
VERSION 0.7
FIELDS x y z rgb
SIZE 4 4 4 4
TYPE F F F F
COUNT 1 1 1 1
WIDTH 942
HEIGHT 1
VIEWPOINT 0 0 0 1 0 0 0
POINTS 942
DATA ascii
1.6655028 -0.59560919 -4.1723251e-06 5.3473465e-39
1.674051 -0.59466219 -5.0067902e-06 5.3473465e-39
1.6838746 -0.59554058 -5.6624413e-06 5.3473465e-39
1.6925291 -0.59458709 -5.6505205e-06 5.3473465e-39
1.706228 -0.59505987 -6.3657762e-06 5.3473465e-39
1.7150056 -0.59409767 -4.529953e-06 5.3473465e-39
1.7251122 -0.59498596 -5.9127806e-06 5.3473465e-39
1.734002 -0.59401751 -4.4107437e-06 5.3473465e-39
1.7442391 -0.59491169 -6.8664549e-06 5.3473465e-39
1.755831 -0.59567189 -6.0319899e-06 5.3473465e-39
1.7662078 -0.59455633 -6.0796738e-06 5.3473465e-39
1.7753527 -0.59560096 -6.3180923e-06 5.3473465e-39
1.7858611 -0.59447694 -4.1723251e-06 5.3473465e-39
1.7951254 -0.5955283 -4.7683716e-06 5.3473465e-39
1.8057766 -0.59439868 -6.8744025e-06 5.3473465e-39
1.8151598 -0.59545577 -5.5789947e-06 5.3473465e-39
1.8259491 -0.59431791 -6.4373016e-06 5.3473465e-39
1.8354563 -0.59538186 -5.5313112e-06 5.3473465e-39
1.8463863 -0.5942356 -4.7683716e-06 5.3473465e-39
1.853259 -0.59559423 -4.4107437e-06 5.2551509e-39
1.863629 -0.59555799 -4.1127205e-06 5.2551509e-39
1.874063 -0.59552079 -5.4836273e-06 5.2551509e-39
1.8845726 -0.59548438 -5.6028366e-06 5.2551509e-39
1.8951448 -0.59544605 -5.7220459e-06 5.2551509e-39
1.9057953 -0.5954088 -5.1856041e-06 5.2551509e-39
1.9165105 -0.59537005 -5.4836273e-06 5.2551509e-39
1.9236962 -0.59463561 -4.8875809e-06 5.2551509e-39
1.9352671 -0.59558785 -5.8889391e-06 5.2551509e-39
1.9454534 -0.59455431 -6.7949295e-06 5.2551509e-39
1.9527702 -0.59595704 -6.3180923e-06 5.2551509e-39
1.9630744 -0.5949176 -5.8889391e-06 5.2551509e-39
1.9749247 -0.59588349 -6.9141388e-06 5.2551509e-39
1.9853706 -0.59483647 -5.9127806e-06 5.2551509e-39
1.9973826 -0.59580791 -4.8875809e-06 5.2551509e-39
2.0049398 -0.5950563 -5.6028366e-06 5.2551509e-39
2.0125325 -0.59430134 -6.7949295e-06 5.2551509e-39
2.024755 -0.59527814 -6.1035157e-06 5.2551509e-39
2.0355167 -0.5942142 -5.8412552e-06 5.2551509e-39
2.0432487 -0.59565508 -4.529953e-06 5.2551509e-39
2.0541415 -0.59458572 -4.9352648e-06 5.2551509e-39
2.0666697 -0.5955776 -5.6028366e-06 5.2551509e-39
2.0745499 -0.59480911 -5.7617822e-06 5.2551509e-39
2.0824692 -0.59403753 -6.9141388e-06 5.2551509e-39
2.0952184 -0.595034 -5.6028366e-06 5.2551509e-39
2.1064494 -0.59394741 -7.4505806e-06 5.2551509e-39
2.1145167 -0.59541857 -6.0796738e-06 5.2551509e-39
2.1226265 -0.59463924 -7.3115029e-06 5.2551509e-39
2.1348655 -0.59459627 -6.377697e-06 5.2551509e-39
2.1471815 -0.59455079 -4.529953e-06 5.2551509e-39
2.1554501 -0.5937621 -6.4373016e-06 5.2551509e-39
2.1637557 -0.5952549 -6.5565109e-06 5.2551509e-39
2.1721027 -0.59675521 -7.2717667e-06 5.2551509e-39
2.2490804 -0.59418958 -5.9604645e-06 5.2551509e-39
2.2578497 -0.59337634 -7.6293945e-06 5.2551509e-39
2.2666574 -0.59491229 -6.3180923e-06 5.2551509e-39
0.5043056 -0.58449775 -2.5431316e-06 5.3473465e-39
0.51474667 -0.58529198 -2.5629997e-06 5.3473465e-39
0.52492636 -0.58517009 -3.139178e-06 5.3473465e-39
0.53547007 -0.58525449 -3.2186508e-06 5.3473465e-39
0.54541212 -0.58501679 -0.00050149736 5.3473465e-39
0.55382842 -0.58522898 -2.6027362e-06 5.3473465e-39
1.5486437 -0.5841648 -5.0067902e-06 6.730281e-39
1.5565219 -0.58510482 -4.1484832e-06 5.3473465e-39
1.5655762 -0.5840295 -5.1259995e-06 5.3473465e-39
1.573549 -0.58497471 -3.7670136e-06 5.3473465e-39
1.5855926 -0.58450407 -5.1061311e-06 5.3473465e-39
1.5942527 -0.58443582 -4.529953e-06 5.3473465e-39
1.603556 -0.58525652 -5.2452087e-06 5.3473465e-39
1.6146767 -0.58491784 -3.8743019e-06 5.3473465e-39
1.6264778 -0.58547175 -4.1723251e-06 5.3473465e-39
1.6353891 -0.58540595 -4.2915344e-06 5.3473465e-39
1.6443629 -0.58534151 -5.6028366e-06 5.3473465e-39
1.6570127 -0.584858 -5.364418e-06 5.3473465e-39
1.6655036 -0.58583719 -4.8875809e-06 5.3473465e-39
1.6752758 -0.58472174 -5.1259995e-06 5.3473465e-39
1.6838738 -0.58570677 -5.0067902e-06 5.3473465e-39
1.6937692 -0.58458412 -5.7935713e-06 5.3473465e-39
1.7049778 -0.58529323 -6.6280363e-06 5.3473465e-39
1.7150055 -0.58416057 -4.529953e-06 5.3473465e-39
1.7238452 -0.5851571 -5.5313112e-06 5.3473465e-39
1.734002 -0.58401722 -4.4107437e-06 5.3473465e-39
1.7429546 -0.58501971 -5.5074693e-06 5.3473465e-39
1.7571237 -0.58545524 -5.4121019e-06 5.3473465e-39
1.7665249 -0.58590114 -7.1024078e-05 5.3473465e-39
1.7766632 -0.58531874 -6.4373016e-06 5.3473465e-39
1.7858611 -0.58430409 -4.1723251e-06 5.3473465e-39
1.7964529 -0.58517921 -4.7683716e-06 5.3473465e-39
1.8057743 -0.58415872 -5.1259995e-06 5.3473465e-39
1.8165045 -0.5850389 -5.5074693e-06 5.3473465e-39
1.8259491 -0.58401161 -6.4373016e-06 5.3473465e-39
1.8368193 -0.58489662 -5.7935713e-06 5.3473465e-39
1.8463862 -0.58386123 -4.7683716e-06 5.3473465e-39
1.853259 -0.58519703 -4.4107437e-06 5.3473465e-39
1.863629 -0.58512622 -4.1127205e-06 5.2551509e-39
1.874063 -0.5850544 -5.4836273e-06 5.2551509e-39
1.8845725 -0.58498293 -5.6028366e-06 5.2551509e-39
1.8951448 -0.58490944 -5.7220459e-06 5.2551509e-39
1.9065077 -0.58581769 -5.3405761e-06 5.2551509e-39
1.9165105 -0.58476233 -5.4836273e-06 5.2551509e-39
1.9236962 -0.58613026 -4.8875809e-06 5.2551509e-39
1.9338169 -0.58506978 -5.9127806e-06 5.2551509e-39
1.9454534 -0.58599108 -6.7949295e-06 5.2551509e-39
1.9527702 -0.5852285 -6.3180923e-06 5.2551509e-39
1.9638126 -0.58515561 -5.6624413e-06 5.2551509e-39
1.9749247 -0.58508134 -6.9141388e-06 5.2551509e-39
1.9861193 -0.58500719 -5.9008598e-06 5.2551509e-39
1.9973837 -0.58493137 -5.7617822e-06 5.2551509e-39
2.0049398 -0.58415419 -5.6028366e-06 5.2551509e-39
2.0125315 -0.58555919 -6.1392784e-06 5.2551509e-39
2.0232234 -0.58446705 -6.7710876e-06 5.2551509e-39
2.0349257 -0.58398718 -0.00055413484 5.2551509e-39
2.0432498 -0.5846259 -5.4041543e-06 5.2551509e-39
2.054924 -0.58454931 -5.9604645e-06 5.2551509e-39
2.0666697 -0.58447003 -5.6028366e-06 5.2551509e-39
2.0745513 -0.58367574 -6.5565109e-06 5.2551509e-39
2.0824656 -0.5851084 -4.4107437e-06 5.2551509e-39
2.0944195 -0.58503038 -5.9604645e-06 5.2551509e-39
2.1064503 -0.58495569 -8.1062317e-06 5.2551509e-39
2.1145167 -0.58640516 -6.0796738e-06 5.2551509e-39
2.1226273 -0.58334565 -7.7486038e-06 5.2551509e-39
2.1348655 -0.58552867 -6.377697e-06 5.2551509e-39
2.1471815 -0.5831753 -4.529953e-06 5.2551509e-39
2.1554501 -0.58463967 -6.4373016e-06 5.2551509e-39
2.1637557 -0.58611035 -6.5565109e-06 5.2551509e-39
2.1721027 -0.58529675 -7.2717667e-06 5.2551509e-39
2.2316785 -0.58181775 -6.3180923e-06 5.2551509e-39
2.2490804 -0.58950377 -5.9604645e-06 5.2551509e-39
2.2578497 -0.58398128 -7.6293945e-06 5.2551509e-39
2.2666574 -0.58549374 -6.3180923e-06 5.2551509e-39
0.50430566 -0.57504582 -2.5431316e-06 5.3473465e-39
0.51487172 -0.57516557 -2.5629997e-06 5.3473465e-39
0.5249927 -0.57471639 -3.0573676e-06 5.3473465e-39
0.5356344 -0.57485771 -3.0293183e-06 5.3473465e-39
0.54564327 -0.57464474 -1.7434359e-06 5.3473465e-39
0.55400932 -0.57510489 -2.8243433e-06 5.3473465e-39
1.5486448 -0.57478184 -5.9604645e-06 6.730281e-39
1.5570871 -0.57468647 -4.8279762e-06 5.3473465e-39
1.5655762 -0.57458985 -5.1259995e-06 5.3473465e-39
1.5741211 -0.57449353 -4.529953e-06 5.3473465e-39
1.5855925 -0.57499766 -4.9769878e-06 5.3473465e-39
1.5942527 -0.57490069 -4.529953e-06 5.3473465e-39
1.6023906 -0.57583058 -5.4836273e-06 5.3473465e-39
1.6146766 -0.5753147 -3.8743019e-06 5.3473465e-39
1.6270698 -0.57479322 -3.8385392e-06 5.3473465e-39
1.635389 -0.5757339 -4.2915344e-06 5.3473465e-39
1.6449623 -0.574597 -5.38826e-06 5.3473465e-39
1.655803 -0.57525671 -5.1259995e-06 5.3473465e-39
1.6655036 -0.57411039 -4.8875809e-06 5.3473465e-39
1.674051 -0.57506073 -5.0067902e-06 5.3473465e-39
1.6838738 -0.57587337 -5.0067902e-06 5.3473465e-39
1.6925291 -0.5748626 -5.6505205e-06 5.3473465e-39
1.706228 -0.57524419 -6.3657762e-06 5.3473465e-39
1.7150056 -0.57422352 -4.529953e-06 5.3473465e-39
1.7251122 -0.57504451 -5.9127806e-06 5.3473465e-39
1.734002 -0.57401693 -4.4107437e-06 5.3473465e-39
1.7442369 -0.57484227 -5.2213668e-06 5.3473465e-39
1.7558304 -0.57552576 -5.5074693e-06 5.3473465e-39
1.7662078 -0.57434136 -6.0796738e-06 5.3473465e-39
1.7753527 -0.57532513 -6.3180923e-06 5.3473465e-39
1.7858611 -0.57413119 -4.1723251e-06 5.3473465e-39
1.7951254 -0.57512081 -4.7683716e-06 5.3473465e-39
1.8057743 -0.57596737 -5.1259995e-06 5.3473465e-39
1.8151596 -0.57491499 -5.5789947e-06 5.3473465e-39
1.8259491 -0.57576656 -6.4373016e-06 5.3473465e-39
1.8354563 -0.57470596 -5.5313112e-06 5.3473465e-39
1.8463862 -0.57556176 -4.7683716e-06 5.3473465e-39
1.853259 -0.57479984 -4.4107437e-06 5.3473465e-39
1.863629 -0.57469451 -4.1127205e-06 5.3473465e-39
1.8743683 -0.57484114 -0.0011334097 5.2551509e-39
1.884572 -0.57448131 -5.2750111e-06 5.2551509e-39
1.8951454 -0.57437301 -6.11941e-06 5.2551509e-39
1.9050829 -0.57539815 -5.0306321e-06 5.2551509e-39
1.9165105 -0.57627618 -5.4836273e-06 5.2551509e-39
1.9236969 -0.57549882 -5.364418e-06 5.2551509e-39
1.9345424 -0.57539409 -6.1988831e-06 5.2551509e-39
1.9454522 -0.57528663 -5.9207282e-06 5.2551509e-39
1.9527738 -0.57450128 -8.8214874e-06 5.2551509e-39
1.9645522 -0.57538712 -6.4373016e-06 5.2551509e-39
1.9749247 -0.57427919 -6.9141388e-06 5.2551509e-39
1.9868686 -0.57517123 -6.3657762e-06 5.2551509e-39
1.9973861 -0.57405519 -7.5101852e-06 5.2551509e-39
2.0049398 -0.57543254 -5.6028366e-06 5.2551509e-39
2.0125306 -0.57463157 -5.4836273e-06 5.2551509e-39
2.0239887 -0.57452083 -6.1988831e-06 5.2551509e-39
2.0355167 -0.57440728 -5.8412552e-06 5.2551509e-39
2.0432506 -0.57359654 -5.8412552e-06 5.2551509e-39
2.054924 -0.57569456 -5.9902668e-06 5.2551509e-39
2.0666697 -0.57336259 -5.6028366e-06 5.2551509e-39
2.0745513 -0.57476878 -6.5565109e-06 5.2551509e-39
2.0824656 -0.57618034 -4.4107437e-06 5.2551509e-39
2.0936203 -0.57503408 -6.0796738e-06 5.2551509e-39
2.1064503 -0.57596374 -8.1062317e-06 5.2551509e-39
2.1145167 -0.57513839 -6.0796738e-06 5.2551509e-39
2.1226273 -0.5743106 -7.7486038e-06 5.2551509e-39
2.1356845 -0.57524323 -6.508827e-06 5.2551509e-39
2.1471815 -0.57407492 -4.529953e-06 5.2551509e-39
2.1554501 -0.5755173 -6.4373016e-06 5.2551509e-39
2.1637518 -0.57467866 -4.0531158e-06 5.2551509e-39
2.1721027 -0.57383835 -7.2717667e-06 5.2551509e-39
2.2230415 -0.57335192 -6.3180923e-06 5.2551509e-39
2.2316785 -0.57482374 -6.3180923e-06 5.2551509e-39
2.2578497 -0.57458627 -7.6293945e-06 5.2551509e-39
2.2666574 -0.57607526 -6.3180923e-06 5.2551509e-39
2.2755136 -0.57285178 -7.390976e-06 5.2551509e-39
2.3387551 -0.57384968 -6.5565109e-06 5.2551509e-39
2.3461492 -0.57487792 -0.0001195072 5.2551509e-39
0.50453645 -0.56483364 -2.8163195e-06 5.3473465e-39
0.51453131 -0.56484824 -2.5090717e-06 5.3473465e-39
0.52492642 -0.56485146 -4.2468309e-06 5.3473465e-39
0.53533244 -0.56508213 -2.8664415e-06 5.3473465e-39
0.54564339 -0.56497276 -2.0265579e-06 5.3473465e-39
0.55382854 -0.56498718 -3.0199687e-06 5.3473465e-39
1.5486447 -0.56539845 -5.9604645e-06 6.730281e-39
1.5576518 -0.56426179 -4.9829482e-06 5.3473465e-39
1.5655762 -0.56515008 -5.1259995e-06 5.3473465e-39
1.5741212 -0.56502539 -4.529953e-06 5.3473465e-39
1.5855922 -0.5654912 -4.5895576e-06 5.3473465e-39
1.5942527 -0.56536555 -4.529953e-06 5.3473465e-39
1.6029735 -0.5652408 -5.364418e-06 5.3473465e-39
1.6152643 -0.56467777 -3.9100646e-06 5.3473465e-39
1.6258847 -0.56529427 -3.5524367e-06 5.3473465e-39
1.635389 -0.56412739 -4.2915344e-06 5.3473465e-39
1.6437626 -0.56503958 -5.2928926e-06 5.3473465e-39
1.6570127 -0.5653699 -5.364418e-06 5.3473465e-39
1.6655036 -0.56433809 -4.8875809e-06 5.3473465e-39
1.6752758 -0.56511211 -5.1259995e-06 5.3473465e-39
1.6838738 -0.56603992 -5.0067902e-06 5.3473465e-39
1.6937672 -0.56485069 -4.1246412e-06 5.3473465e-39
1.7049778 -0.56548584 -6.6280363e-06 5.3473465e-39
1.7150055 -0.56428647 -4.529953e-06 5.3473465e-39
1.7238452 -0.56522423 -5.5313112e-06 5.3473465e-39
1.734002 -0.56401664 -4.4107437e-06 5.3473465e-39
1.7429546 -0.56495959 -5.5074693e-06 5.3473465e-39
1.7571226 -0.56530035 -4.3630598e-06 5.3473465e-39
1.7662078 -0.5642339 -6.0796738e-06 5.3473465e-39
1.7766632 -0.56503421 -6.4373016e-06 5.3473465e-39
1.7858611 -0.56395829 -4.1723251e-06 5.3473465e-39
1.7964529 -0.56476295 -4.7683716e-06 5.3473465e-39
1.8057743 -0.56572825 -5.1259995e-06 5.3473465e-39
1.8165042 -0.56448919 -5.5074693e-06 5.3473465e-39
1.8259497 -0.56546044 -6.9141388e-06 5.3473465e-39
1.8361378 -0.56532496 -5.6624413e-06 5.3473465e-39
1.8463863 -0.56518739 -4.7683716e-06 5.3473465e-39
1.8532608 -0.56440318 -5.7816505e-06 5.3473465e-39
1.8645011 -0.56471503 -0.00057275972 5.2551509e-39
1.874063 -0.56412148 -5.4836273e-06 5.3473465e-39
1.8852755 -0.56494981 -5.7458878e-06 5.2551509e-39
1.8951465 -0.56383675 -6.9141388e-06 5.2551509e-39
1.9065088 -0.56466919 -6.1273577e-06 5.2551509e-39
1.9165105 -0.5656684 -5.4836273e-06 5.2551509e-39
1.9236979 -0.5648675 -6.3180923e-06 5.2551509e-39
1.935268 -0.56571174 -6.6041948e-06 5.2551509e-39
1.9454516 -0.56458241 -5.4836273e-06 5.2551509e-39
1.952772 -0.56591797 -7.5697899e-06 5.2551509e-39
1.9630759 -0.56478244 -6.8902968e-06 5.2551509e-39
1.9749247 -0.56563741 -6.9141388e-06 5.2551509e-39
1.9853718 -0.56449342 -6.6280363e-06 5.2551509e-39
1.9973861 -0.56535363 -7.5101852e-06 5.2551509e-39
2.0049398 -0.56453055 -5.6028366e-06 5.2551509e-39
2.0125306 -0.56370425 -5.4836273e-06 5.2551509e-39
2.023988 -0.56574821 -5.6028366e-06 5.2551509e-39
2.0355167 -0.56340349 -5.8412552e-06 5.2551509e-39
2.0432506 -0.5647729 -5.8412552e-06 5.2551509e-39
2.0557046 -0.56564832 -6.0796738e-06 5.2551509e-39
2.0666697 -0.56447649 -5.6028366e-06 5.2551509e-39
2.0745513 -0.56586182 -6.5565109e-06 5.2551509e-39
2.0824656 -0.56502026 -4.4107437e-06 5.2551509e-39
2.0944195 -0.56487328 -5.9604645e-06 5.2551509e-39
2.1064503 -0.56472385 -8.1062317e-06 5.2551509e-39
2.1145167 -0.56387162 -6.0796738e-06 5.2551509e-39
2.1226273 -0.56527555 -7.7486038e-06 5.2551509e-39
2.1348655 -0.56512386 -6.377697e-06 5.2551509e-39
2.1471815 -0.56497455 -4.529953e-06 5.2551509e-39
2.1554501 -0.56639493 -6.4373016e-06 5.2551509e-39
2.1637518 -0.56324804 -4.0531158e-06 5.2551509e-39
2.1721008 -0.5646711 -6.0796738e-06 5.2551509e-39
2.2230415 -0.56404954 -6.3180923e-06 5.2551509e-39
2.2316785 -0.56782973 -6.3180923e-06 5.2551509e-39
2.2578497 -0.56753993 -7.6293945e-06 5.2551509e-39
2.2666574 -0.56665671 -6.3180923e-06 5.2551509e-39
2.2755136 -0.56577021 -7.390976e-06 5.2551509e-39
2.3387511 -0.56664085 -4.1723251e-06 5.2551509e-39
2.3479774 -0.56573737 -8.3446503e-06 5.2551509e-39
2.3759181 -0.56299335 -7.1525574e-06 5.2551509e-39
0.50469667 -0.55518365 -0.00038543169 5.3473465e-39
0.51485234 -0.55488002 -2.5033951e-06 5.3473465e-39
0.52485931 -0.55498719 -4.2564729e-06 5.3473465e-39
0.5352276 -0.55499405 -2.8610229e-06 5.3473465e-39
0.54546922 -0.55488038 -0.0002556711 5.3473465e-39
0.55400836 -0.55467862 -0.0006027628 5.3473465e-39
1.5486447 -0.55413842 -5.9604645e-06 6.730281e-39
1.5565226 -0.55499446 -4.6730042e-06 5.3473465e-39
1.5655762 -0.55382252 -5.1259995e-06 5.3473465e-39
1.5741211 -0.55555725 -4.529953e-06 5.3473465e-39
1.5861679 -0.55495948 -4.5776369e-06 5.3473465e-39
1.5942527 -0.55583042 -4.529953e-06 5.3473465e-39
1.6035563 -0.55464494 -5.2452087e-06 5.3473465e-39
1.614089 -0.55522168 -3.8385392e-06 5.3473465e-39
1.6264772 -0.55461591 -3.695488e-06 5.3473465e-39
1.6353891 -0.55445534 -4.2915344e-06 5.3473465e-39
1.6449616 -0.55518895 -4.8637389e-06 5.3473465e-39
1.655803 -0.55577677 -5.1259995e-06 5.3473465e-39
1.6655036 -0.55456585 -4.8875809e-06 5.3473465e-39
1.674051 -0.55545926 -5.0067902e-06 5.3473465e-39
1.6838738 -0.55423981 -5.0067902e-06 5.3473465e-39
1.6925278 -0.55513763 -4.553795e-06 5.3473465e-39
1.7062267 -0.55542803 -5.2213668e-06 5.3473465e-39
1.7150056 -0.55434942 -4.529953e-06 5.3473465e-39
1.7251122 -0.55510318 -5.9127806e-06 5.3473465e-39
1.734002 -0.55401635 -4.4107437e-06 5.3473465e-39
1.7442372 -0.55477369 -5.5074693e-06 5.3473465e-39
1.7552739 -0.55577451 -0.00034450131 5.3473465e-39
1.7662066 -0.55412602 -5.1259995e-06 5.3473465e-39
1.7753532 -0.55504954 -6.8426134e-06 5.3473465e-39
1.785862 -0.55582029 -4.7683716e-06 5.3473465e-39
1.7951269 -0.55471385 -5.8650971e-06 5.3473465e-39
1.8057743 -0.55548906 -5.1259995e-06 5.3473465e-39
1.8151617 -0.55437481 -7.2240828e-06 5.3473465e-39
1.8259492 -0.55515397 -6.5565109e-06 5.3473465e-39
1.8361386 -0.55498499 -6.2584877e-06 5.3473465e-39
1.8463862 -0.55481303 -4.7683716e-06 5.3473465e-39
1.8532624 -0.55608594 -7.1525574e-06 5.3473465e-39
1.8629366 -0.55495441 -4.8160555e-06 5.3473465e-39
1.874063 -0.55574834 -5.4836273e-06 5.3473465e-39
1.8838698 -0.55460918 -5.4597854e-06 5.2551509e-39
1.8951465 -0.55540746 -6.9141388e-06 5.2551509e-39
1.9050837 -0.55425894 -5.5551527e-06 5.2551509e-39
1.9164912 -0.55366331 -0.00039843912 5.2551509e-39
1.9236979 -0.55636221 -6.3180923e-06 5.2551509e-39
1.9338176 -0.55520707 -6.3896177e-06 5.2551509e-39
1.9454516 -0.55601919 -5.4836273e-06 5.2551509e-39
1.9527702 -0.55518895 -6.3180923e-06 5.2551509e-39
1.9638134 -0.55501342 -6.28829e-06 5.2551509e-39
1.9749247 -0.55483526 -6.9141388e-06 5.2551509e-39
1.9861202 -0.5546571 -6.4969063e-06 5.2551509e-39
1.9973861 -0.55447668 -7.5101852e-06 5.2551509e-39
2.0049398 -0.55362844 -5.6028366e-06 5.2551509e-39
2.0134754 -0.55623633 -0.00035321852 5.2551509e-39
2.0247538 -0.55579305 -5.38826e-06 5.2551509e-39
2.0355167 -0.55460036 -5.8412552e-06 5.2551509e-39
2.0432994 -0.55666232 -0.0012351288 5.2551509e-39
2.0541434 -0.55474931 -5.9604645e-06 5.2551509e-39
2.0666697 -0.55559051 -5.6028366e-06 5.2551509e-39
2.0745513 -0.55472803 -6.5565109e-06 5.2551509e-39
2.0824656 -0.55386019 -4.4107437e-06 5.2551509e-39
2.0944195 -0.55591339 -5.9604645e-06 5.2551509e-39
2.1064503 -0.5534839 -8.1062317e-06 5.2551509e-39
2.1145167 -0.55485821 -6.0796738e-06 5.2551509e-39
2.1226273 -0.55624056 -7.7486038e-06 5.2551509e-39
2.1340468 -0.55501211 -6.246567e-06 5.2551509e-39
2.1471815 -0.55587417 -4.529953e-06 5.2551509e-39
2.1554501 -0.5549919 -6.4373016e-06 5.2551509e-39
2.1637518 -0.55410355 -4.0531158e-06 5.2551509e-39
2.1721008 -0.55550438 -6.0796738e-06 5.2551509e-39
2.205894 -0.55423051 -5.8412552e-06 5.2551509e-39
2.2144468 -0.55332828 -6.1988831e-06 5.2551509e-39
2.3759639 -0.55613452 -0.00053599488 5.2551509e-39
0.50487179 -0.54494894 -2.2369272e-06 5.3473465e-39
0.51474506 -0.54488486 -2.4920419e-06 5.3473465e-39
0.52492619 -0.54513049 -3.6656857e-06 5.3473465e-39
0.53512299 -0.54490781 -2.8393486e-06 5.3473465e-39
0.54564321 -0.54502344 -1.4603138e-06 5.3473465e-39
0.5538289 -0.54474646 -3.7749608e-06 5.3473465e-39
1.5486448 -0.5447551 -5.9604645e-06 6.730281e-39
1.5570873 -0.54456979 -4.8279762e-06 5.3473465e-39
1.5655762 -0.54438281 -5.1259995e-06 5.3473465e-39
1.5746925 -0.54506588 -4.7206877e-06 5.3473465e-39
1.5850163 -0.54560268 -4.6014784e-06 5.3473465e-39
1.5942527 -0.54438823 -4.529953e-06 5.3473465e-39
1.6023906 -0.54523146 -5.4836273e-06 5.3473465e-39
1.6146766 -0.54458469 -3.8743019e-06 5.3473465e-39
1.6264772 -0.54497343 -3.695488e-06 5.3473465e-39
1.635389 -0.54478329 -4.2915344e-06 5.3473465e-39
1.6437622 -0.54563957 -5.0306321e-06 5.3473465e-39
1.6564077 -0.54498613 -5.2452087e-06 5.3473465e-39
1.6655036 -0.54479349 -4.8875809e-06 5.3473465e-39
1.6746637 -0.54460126 -5.284945e-06 5.3473465e-39
1.6838746 -0.54440665 -5.6624413e-06 5.3473465e-39
1.6937679 -0.54511815 -4.7206877e-06 5.3473465e-39
1.7049758 -0.54567778 -4.8637389e-06 5.3473465e-39
1.7150055 -0.54441237 -4.529953e-06 5.3473465e-39
1.7238461 -0.54529142 -6.1511992e-06 5.3473465e-39
1.7340037 -0.54401666 -5.7220459e-06 5.3473465e-39
1.7429552 -0.54489964 -6.0796738e-06 5.3473465e-39
1.7571236 -0.54514617 -5.1498414e-06 5.3473465e-39
1.7662042 -0.54401779 -3.2186508e-06 5.3473465e-39
1.7766638 -0.54474986 -6.9618227e-06 5.3473465e-39
1.7858628 -0.54564762 -5.364418e-06 5.3473465e-39
1.7957909 -0.54545045 -6.1392784e-06 5.3473465e-39
1.8057743 -0.54524988 -5.1259995e-06 5.3473465e-39
1.8158337 -0.5450505 -6.9141388e-06 5.3473465e-39
1.8259474 -0.54484707 -5.2452087e-06 5.3473465e-39
1.8361386 -0.54464477 -6.2584877e-06 5.3473465e-39
1.8463863 -0.54443878 -4.7683716e-06 5.3473465e-39
1.8532624 -0.54568869 -7.1525574e-06 5.3473465e-39
1.8636298 -0.54548597 -4.7087669e-06 5.3473465e-39
1.874063 -0.54528189 -5.4836273e-06 5.3473465e-39
1.8845726 -0.54507744 -5.6028366e-06 5.3473465e-39
1.8951441 -0.54487008 -5.2452087e-06 5.2551509e-39
1.9057962 -0.54466319 -5.8412552e-06 5.2551509e-39
1.9165105 -0.54445297 -5.4836273e-06 5.2551509e-39
1.9236979 -0.54573053 -6.3180923e-06 5.2551509e-39
1.9345428 -0.54552454 -6.4969063e-06 5.2551509e-39
1.9454516 -0.54531509 -5.4836273e-06 5.2551509e-39
1.9527702 -0.54446054 -6.3180923e-06 5.2551509e-39
1.9645513 -0.5452376 -5.9366225e-06 5.2551509e-39
1.9749247 -0.54403311 -6.9141388e-06 5.2551509e-39
1.9868686 -0.54481387 -6.3657762e-06 5.2551509e-39
1.9973861 -0.54359978 -7.5101852e-06 5.2551509e-39
2.0049398 -0.5449068 -5.6028366e-06 5.2551509e-39
2.0125306 -0.54622054 -5.4836273e-06 5.2551509e-39
2.0232208 -0.54499978 -4.8637389e-06 5.2551509e-39
2.0355167 -0.54579735 -5.8412552e-06 5.2551509e-39
2.0432506 -0.54491967 -5.8412552e-06 5.2551509e-39
2.054924 -0.54470307 -6.0200691e-06 5.2551509e-39
2.0666697 -0.54448301 -5.6028366e-06 5.2551509e-39
2.0745513 -0.54359424 -6.5565109e-06 5.2551509e-39
2.0824656 -0.54493213 -4.4107437e-06 5.2551509e-39
2.0952187 -0.54574299 -5.8412552e-06 5.2551509e-39
2.1064465 -0.54449099 -5.6028366e-06 5.2551509e-39
2.1145167 -0.54584479 -6.0796738e-06 5.2551509e-39
2.1226273 -0.54494685 -7.7486038e-06 5.2551509e-39
2.1348655 -0.54472452 -6.377697e-06 5.2551509e-39
2.1471815 -0.54677379 -4.529953e-06 5.2551509e-39
2.1554501 -0.54358888 -6.4373016e-06 5.2551509e-39
2.1637518 -0.54495907 -4.0531158e-06 5.2551509e-39
2.1721008 -0.5463376 -6.0796738e-06 5.2551509e-39
2.1973827 -0.5435856 -5.364418e-06 5.2551509e-39
2.205894 -0.54497379 -5.8412552e-06 5.2551509e-39
2.2144477 -0.54404902 -6.7353249e-06 5.2551509e-39
2.2230415 -0.54544479 -6.3180923e-06 5.2551509e-39
0.50474072 -0.53489619 -2.6997398e-06 5.3473465e-39
0.51474541 -0.5351398 -2.8431416e-06 5.3473465e-39
0.52492648 -0.534971 -3.5497878e-06 5.3473465e-39
0.53522766 -0.53480005 -3.3378601e-06 5.3473465e-39
0.54557496 -0.53504664 -2.7137644e-06 5.3473465e-39
0.55382913 -0.53503114 -4.529953e-06 5.3473465e-39
1.5486437 -0.53537136 -5.0465264e-06 6.730281e-39
1.5576518 -0.53413904 -4.9829482e-06 5.3473465e-39
1.5655762 -0.53494304 -5.1259995e-06 5.3473465e-39
1.5735496 -0.53575045 -4.3392183e-06 5.3473465e-39
1.5855924 -0.53507102 -4.8279762e-06 5.3473465e-39
1.5942527 -0.5348531 -4.529953e-06 5.3473465e-39
1.6029726 -0.53463531 -4.9273171e-06 5.3473465e-39
1.6146772 -0.53498173 -4.2319298e-06 5.3473465e-39
1.6264786 -0.53533143 -4.609426e-06 5.3473465e-39
1.6353923 -0.53511232 -7.1525574e-06 5.3473465e-39
1.6443628 -0.53489143 -5.6028366e-06 5.3473465e-39
1.6564085 -0.53524435 -5.9604645e-06 5.3473465e-39
1.6655036 -0.53502125 -4.8875809e-06 5.3473465e-39
1.6746641 -0.53479868 -5.7220459e-06 5.3473465e-39
1.6838754 -0.5345735 -6.3180923e-06 5.3473465e-39
1.6925284 -0.53541338 -5.1259995e-06 5.3473465e-39
1.7056004 -0.53470343 -4.2915344e-06 5.3473465e-39
1.7150056 -0.53447533 -4.529953e-06 5.3473465e-39
1.7251129 -0.53516203 -6.532669e-06 5.3473465e-39
1.7340037 -0.53401637 -5.7220459e-06 5.3473465e-39
1.7442379 -0.53470522 -6.0796738e-06 5.3473465e-39
1.7558296 -0.5352338 -4.9829482e-06 5.3473465e-39
1.7662042 -0.53593183 -3.2186508e-06 5.3473465e-39
1.7753522 -0.53477335 -6.0081484e-06 5.3473465e-39
1.7858628 -0.53547478 -5.364418e-06 5.3473465e-39
1.795791 -0.53524446 -6.1392784e-06 5.3473465e-39
1.8057743 -0.5350107 -5.1259995e-06 5.3473465e-39
1.8158337 -0.53477782 -6.9141388e-06 5.3473465e-39
1.8259474 -0.53454077 -5.2452087e-06 5.3473465e-39
1.8368202 -0.53525293 -6.508827e-06 5.3473465e-39
1.8463862 -0.53406441 -4.7683716e-06 5.3473465e-39
1.8532624 -0.53529143 -7.1525574e-06 5.3473465e-39
1.8636298 -0.53505427 -4.7087669e-06 5.3473465e-39
1.874063 -0.53481543 -5.4836273e-06 5.3473465e-39
1.8852755 -0.53553921 -5.7458878e-06 5.3473465e-39
1.895143 -0.53433317 -4.4107437e-06 5.3473465e-39
1.9065088 -0.5350607 -6.1273577e-06 5.2551509e-39
1.9165105 -0.53384519 -5.4836273e-06 5.2551509e-39
1.9236979 -0.53509891 -6.3180923e-06 5.2551509e-39
1.935268 -0.53583527 -6.6041948e-06 5.2551509e-39
1.9454516 -0.53461105 -5.4836273e-06 5.2551509e-39
1.9527702 -0.53587782 -6.3180923e-06 5.2551509e-39
1.9630722 -0.5346458 -4.3869018e-06 5.2551509e-39
1.9749247 -0.53539139 -6.9141388e-06 5.2551509e-39
1.9853718 -0.53415 -6.6280363e-06 5.2551509e-39
1.9973861 -0.53489828 -7.5101852e-06 5.2551509e-39
2.0049398 -0.53618515 -5.6028366e-06 5.2551509e-39
2.0125306 -0.53529322 -5.4836273e-06 5.2551509e-39
2.0239873 -0.53504473 -5.0067902e-06 5.2551509e-39
2.0355167 -0.53479356 -5.8412552e-06 5.2551509e-39
2.0432506 -0.53389013 -5.8412552e-06 5.2551509e-39
2.054924 -0.53584832 -6.0200691e-06 5.2551509e-39
2.0666697 -0.5333755 -5.6028366e-06 5.2551509e-39
2.0745513 -0.53468728 -6.5565109e-06 5.2551509e-39
2.0824656 -0.53600407 -4.4107437e-06 5.2551509e-39
2.0936208 -0.53472418 -6.3180923e-06 5.2551509e-39
2.1064465 -0.5354991 -5.6028366e-06 5.2551509e-39
2.114516 -0.53457785 -5.7220459e-06 5.2551509e-39
2.1226273 -0.53365302 -7.7486038e-06 5.2551509e-39
2.1348662 -0.53565717 -7.0035458e-06 5.2551509e-39
2.1471839 -0.53539896 -6.1988831e-06 5.2551509e-39
2.1554501 -0.53446651 -6.4373016e-06 5.2551509e-39
2.1637557 -0.53581554 -6.5565109e-06 5.2551509e-39
2.1721008 -0.53487921 -6.0796738e-06 5.2551509e-39
2.205894 -0.53571707 -5.8412552e-06 5.2551509e-39
2.2144487 -0.53476977 -7.2717667e-06 5.2551509e-39
2.2767408 -0.53341943 -0.00025732338 5.2551509e-39
2.2844124 -0.53411496 -7.5101852e-06 5.2551509e-39
2.3387551 -0.53540778 -6.5565109e-06 5.2551509e-39
2.366555 -0.53243762 -6.3180923e-06 5.2551509e-39
2.3759201 -0.53629279 -8.225441e-06 5.2551509e-39
0.50461 -0.5248456 -2.9101091e-06 5.3473465e-39
0.51484782 -0.52514476 -2.9206276e-06 5.3473465e-39
0.52492619 -0.52481174 -3.6656857e-06 5.3473465e-39
0.53522754 -0.52494299 -3.230004e-06 5.3473465e-39
0.54564357 -0.52507567 -2.592802e-06 5.3473465e-39
0.55364835 -0.52491903 -3.9889264e-06 5.3473465e-39
1.5486416 -0.5241105 -3.2186508e-06 6.730281e-39
1.5565233 -0.52488405 -5.2928926e-06 5.3473465e-39
1.5655779 -0.52550387 -6.5565109e-06 5.3473465e-39
1.574122 -0.52525944 -5.1856041e-06 5.3473465e-39
1.5865752 -0.52448988 -0.00029482224 5.3473465e-39
1.5942527 -0.52531791 -4.529953e-06 5.3473465e-39
1.6029726 -0.52507102 -4.7087669e-06 5.3473465e-39
1.6146774 -0.5253787 -4.5895576e-06 5.3473465e-39
1.6270711 -0.52464288 -4.9352648e-06 5.3473465e-39
1.6353923 -0.52544022 -7.1525574e-06 5.3473465e-39
1.6443628 -0.52518946 -5.6028366e-06 5.3473465e-39
1.656407 -0.52550173 -4.529953e-06 5.3473465e-39
1.6655036 -0.52524889 -4.8875809e-06 5.3473465e-39
1.6746641 -0.52499586 -5.7220459e-06 5.3473465e-39
1.6838754 -0.52473998 -6.3180923e-06 5.3473465e-39
1.6937683 -0.52538556 -5.0067902e-06 5.3473465e-39
1.7056004 -0.52479768 -4.2915344e-06 5.3473465e-39
1.7150055 -0.52453828 -4.529953e-06 5.3473465e-39
1.7238464 -0.52535856 -6.4611436e-06 5.3473465e-39
1.7340037 -0.52401608 -5.7220459e-06 5.3473465e-39
1.7429552 -0.52483946 -6.0796738e-06 5.3473465e-39
1.7571236 -0.52499169 -5.1498414e-06 5.3473465e-39
1.7662042 -0.52582437 -3.2186508e-06 5.3473465e-39
1.7766612 -0.52446443 -4.8637389e-06 5.3473465e-39
1.7858628 -0.52530187 -5.364418e-06 5.3473465e-39
1.7957909 -0.52503854 -6.1392784e-06 5.3473465e-39
1.8057743 -0.52477157 -5.1259995e-06 5.3473465e-39
1.8158338 -0.5245052 -6.9141388e-06 5.3473465e-39
1.8259474 -0.52423447 -5.2452087e-06 5.3473465e-39
1.8354563 -0.52508372 -5.5313112e-06 5.3473465e-39
1.8463862 -0.52576494 -4.7683716e-06 5.3473465e-39
1.8532624 -0.5248943 -7.1525574e-06 5.3473465e-39
1.8636298 -0.5246225 -4.7087669e-06 5.3473465e-39
1.874063 -0.52434897 -5.4836273e-06 5.3473465e-39
1.8838698 -0.52521169 -5.4597854e-06 5.3473465e-39
1.895143 -0.52590388 -4.4107437e-06 5.3473465e-39
1.9050833 -0.52466375 -5.2928926e-06 5.2551509e-39
1.9165105 -0.52535903 -5.4836273e-06 5.2551509e-39
1.9236979 -0.52446723 -6.3180923e-06 5.2551509e-39
1.9338175 -0.52534401 -6.3896177e-06 5.2551509e-39
1.9454516 -0.52604783 -5.4836273e-06 5.2551509e-39
1.9527702 -0.52514941 -6.3180923e-06 5.2551509e-39
1.9638107 -0.52487016 -4.4107437e-06 5.2551509e-39
1.9749223 -0.52458858 -5.0862632e-06 5.2551509e-39
1.9861202 -0.52430677 -6.4969063e-06 5.2551509e-39
1.9973861 -0.52619672 -7.5101852e-06 5.2551509e-39
2.004941 -0.52528346 -6.4770379e-06 5.2551509e-39
2.0125306 -0.5243659 -5.4836273e-06 5.2551509e-39
2.0247543 -0.52508277 -5.674362e-06 5.2551509e-39
2.0355177 -0.52379 -6.4373016e-06 5.2551509e-39
2.0432506 -0.52506644 -5.8412552e-06 5.2551509e-39
2.0557053 -0.52579284 -6.5803529e-06 5.2551509e-39
2.0666714 -0.52449 -6.7949295e-06 5.2551509e-39
2.0745513 -0.52578032 -6.5565109e-06 5.2551509e-39
2.0824676 -0.52484447 -5.7220459e-06 5.2551509e-39
2.0944204 -0.52455395 -6.5565109e-06 5.2551509e-39
2.1064465 -0.52650714 -5.6028366e-06 5.2551509e-39
2.1145167 -0.52331132 -6.0796738e-06 5.2551509e-39
2.1226254 -0.52461755 -6.5565109e-06 5.2551509e-39
2.1357052 -0.52467322 -0.00037982731 5.2551509e-39
2.1471851 -0.52402377 -7.0333481e-06 5.2551509e-39
2.1554501 -0.52534407 -6.4373016e-06 5.2551509e-39
2.1637557 -0.52667105 -6.5565109e-06 5.2551509e-39
2.1721008 -0.52342081 -6.0796738e-06 5.2551509e-39
2.1804891 -0.52474988 -7.1525574e-06 5.2551509e-39
2.2755117 -0.52564085 -6.3180923e-06 5.2551509e-39
2.2844124 -0.52938205 -7.5101852e-06 5.2551509e-39
2.3387551 -0.52819997 -6.5565109e-06 5.2551509e-39
2.3759201 -0.52901077 -8.225441e-06 5.2551509e-39
0.50467557 -0.51509917 -2.9206276e-06 5.3473465e-39
0.51453125 -0.51493961 -2.3728326e-06 5.3473465e-39
0.52499294 -0.51495343 -3.6183526e-06 5.3473465e-39
0.5352276 -0.51508582 -2.8848649e-06 5.3473465e-39
0.54543829 -0.5150944 -2.4893704e-06 5.3473465e-39
0.5538289 -0.51479083 -3.7352245e-06 5.3473465e-39
1.5486416 -0.51472723 -3.2186508e-06 6.730281e-39
1.557088 -0.51445335 -5.6028366e-06 5.3473465e-39
1.5655779 -0.51606417 -6.5565109e-06 5.3473465e-39
1.5746934 -0.51476204 -5.5074693e-06 5.3473465e-39
1.585017 -0.51518881 -5.1736833e-06 5.3473465e-39
1.5942527 -0.51387572 -4.529953e-06 5.3473465e-39
1.6029729 -0.5155068 -4.7087669e-06 5.3473465e-39
1.6152651 -0.51473153 -4.4822691e-06 5.3473465e-39
1.6258867 -0.51516467 -5.1975248e-06 5.3473465e-39
1.6353923 -0.51576817 -7.1525574e-06 5.3473465e-39
1.6443628 -0.51548749 -5.6028366e-06 5.3473465e-39
1.6570117 -0.51470059 -4.5061111e-06 5.3473465e-39
1.6655036 -0.51547664 -4.8875809e-06 5.3473465e-39
1.6746643 -0.51519305 -5.7220459e-06 5.3473465e-39
1.6838754 -0.51490659 -6.3180923e-06 5.3473465e-39
1.6925284 -0.51568884 -5.1259995e-06 5.3473465e-39
1.7056004 -0.51489192 -4.2915344e-06 5.3473465e-39
1.7150056 -0.51460123 -4.529953e-06 5.3473465e-39
1.7251129 -0.51522064 -6.532669e-06 5.3473465e-39
1.7340037 -0.51401579 -5.7220459e-06 5.3473465e-39
1.744083 -0.51397735 -0.00047492617 5.3473465e-39
1.7558298 -0.51508796 -4.9829482e-06 5.3473465e-39
1.7662042 -0.51571691 -3.2186508e-06 5.3473465e-39
1.7753502 -0.5144968 -4.4584276e-06 5.3473465e-39
1.7858628 -0.51512897 -5.364418e-06 5.3473465e-39
1.795791 -0.51483256 -6.1392784e-06 5.3473465e-39
1.8057743 -0.51453239 -5.1259995e-06 5.3473465e-39
1.8165058 -0.51517022 -6.6041948e-06 5.3473465e-39
1.8259474 -0.51392817 -5.2452087e-06 5.3473465e-39
1.8372663 -0.51404864 -0.00013527318 5.3473465e-39
1.8463863 -0.51539057 -4.7683716e-06 5.3473465e-39
1.8532624 -0.51449704 -7.1525574e-06 5.3473465e-39
1.864323 -0.51514304 -4.6014784e-06 5.3473465e-39
1.874063 -0.51388252 -5.4836273e-06 5.3473465e-39
1.8845725 -0.51567352 -5.6028366e-06 5.3473465e-39
1.895143 -0.51536727 -4.4107437e-06 5.3473465e-39
1.9057953 -0.51506114 -5.1856041e-06 5.3473465e-39
1.9165111 -0.51475149 -5.8809915e-06 5.2551509e-39
1.9236979 -0.51383555 -6.3180923e-06 5.2551509e-39
1.9345433 -0.51565492 -6.7949295e-06 5.2551509e-39
1.9454528 -0.51534408 -6.3578286e-06 5.2551509e-39
1.9527702 -0.51442099 -6.3180923e-06 5.2551509e-39
1.9645497 -0.51508772 -4.6968462e-06 5.2551509e-39
1.9749247 -0.51378709 -6.9141388e-06 5.2551509e-39
1.9861207 -0.51563537 -6.7949295e-06 5.2551509e-39
1.9973861 -0.51531982 -7.5101852e-06 5.2551509e-39
2.0049434 -0.51438206 -8.225441e-06 5.2551509e-39
2.0125306 -0.51562405 -5.4836273e-06 5.2551509e-39
2.0232232 -0.51430428 -6.4373016e-06 5.2551509e-39
2.0355189 -0.51498717 -7.0333481e-06 5.2551509e-39
2.0432506 -0.5162428 -5.8412552e-06 5.2551509e-39
2.0541439 -0.51491249 -6.4611436e-06 5.2551509e-39
2.0666714 -0.51560396 -6.7949295e-06 5.2551509e-39
2.0745513 -0.51464653 -6.5565109e-06 5.2551509e-39
2.0828874 -0.51396662 -0.0015389778 5.2551509e-39
2.0944204 -0.51559407 -6.5565109e-06 5.2551509e-39
2.1064465 -0.51526725 -5.6028366e-06 5.2551509e-39
2.1145167 -0.5142979 -6.0796738e-06 5.2551509e-39
2.1226237 -0.51558208 -5.364418e-06 5.2551509e-39
2.1340489 -0.51421833 -7.7486038e-06 5.2551509e-39
2.1471851 -0.51492339 -7.0333481e-06 5.2551509e-39
2.1554501 -0.5162217 -6.4373016e-06 5.2551509e-39
2.1637557 -0.51524037 -6.5565109e-06 5.2551509e-39
2.1721008 -0.51425403 -6.0796738e-06 5.2551509e-39
2.1804891 -0.51785809 -7.1525574e-06 5.2551509e-39
2.1973848 -0.51126695 -6.5565109e-06 5.2551509e-39
2.2230415 -0.51288652 -6.3180923e-06 5.2551509e-39
2.3026755 -0.514561 -0.00068202894 5.2551509e-39
2.3113778 -0.51448917 -7.1525574e-06 5.2551509e-39
0.50467581 -0.50505435 -2.8742684e-06 5.3473465e-39
0.51485246 -0.50496274 -2.9291425e-06 5.3473465e-39
0.5249263 -0.50509036 -3.9339066e-06 5.3473465e-39
0.53511781 -0.50521988 -2.7077538e-06 5.3473465e-39
0.54567891 -0.50475055 -0.0001326857 5.3473465e-39
0.5538289 -0.50507516 -3.7352245e-06 5.3473465e-39
1.5486416 -0.50534385 -3.2186508e-06 6.730281e-39
1.5570865 -0.50504136 -4.2319298e-06 5.3473465e-39
1.5655779 -0.50473654 -6.5565109e-06 5.3473465e-39
1.5735505 -0.50545865 -4.8637389e-06 5.3473465e-39
1.5855929 -0.50465095 -5.3048134e-06 5.3473465e-39
1.5942527 -0.50434053 -4.529953e-06 5.3473465e-39
1.6035557 -0.50490087 -4.7206877e-06 5.3473465e-39
1.61409 -0.50529587 -4.6968462e-06 5.3473465e-39
1.626479 -0.50447589 -5.0663948e-06 5.3473465e-39
1.6353923 -0.50609607 -7.1525574e-06 5.3473465e-39
1.6449627 -0.50472879 -5.6505205e-06 5.3473465e-39
1.6552448 -0.50500184 -0.00050575222 5.3473465e-39
1.6655036 -0.50570428 -4.8875809e-06 5.3473465e-39
1.6746641 -0.50539035 -5.7220459e-06 5.3473465e-39
1.6848677 -0.50628048 -0.00096834084 5.3473465e-39
1.6931483 -0.5047543 -5.0663948e-06 5.3473465e-39
1.7056003 -0.50498611 -4.2915344e-06 5.3473465e-39
1.7150055 -0.50466412 -4.529953e-06 5.3473465e-39
1.7238457 -0.50542539 -5.9366225e-06 5.3473465e-39
1.7340037 -0.50401551 -5.7220459e-06 5.3473465e-39
1.7429552 -0.50477922 -6.0796738e-06 5.3473465e-39
1.7571236 -0.50483721 -5.1498414e-06 5.3473465e-39
1.7662042 -0.50560939 -3.2186508e-06 5.3473465e-39
1.7760053 -0.50528443 -4.4107437e-06 5.3473465e-39
1.7858628 -0.50495607 -5.364418e-06 5.3473465e-39
1.7957909 -0.50462663 -6.1392784e-06 5.3473465e-39
1.8057748 -0.50429338 -5.5631003e-06 5.3473465e-39
1.8151619 -0.50507694 -7.5101852e-06 5.3473465e-39
1.8259474 -0.50568306 -5.2452087e-06 5.3473465e-39
1.8354571 -0.504408 -6.0796738e-06 5.3473465e-39
1.8463871 -0.50501651 -5.4836273e-06 5.3473465e-39
1.8532608 -0.50617874 -5.7816505e-06 5.3473465e-39
1.8629372 -0.50489342 -5.2928926e-06 5.3473465e-39
1.8740665 -0.50551033 -8.1062317e-06 5.3473465e-39
1.8845733 -0.50517225 -6.1988831e-06 5.3473465e-39
1.895143 -0.50483066 -4.4107437e-06 5.3473465e-39
1.9065084 -0.50545216 -5.8174132e-06 5.3473465e-39
1.9165123 -0.50414407 -6.6757202e-06 5.3473465e-39
1.9236979 -0.5053302 -6.3180923e-06 5.2551509e-39
1.9345437 -0.5049873 -7.0929527e-06 5.2551509e-39
1.9454534 -0.50464016 -6.7949295e-06 5.2551509e-39
1.9527702 -0.50583827 -6.3180923e-06 5.2551509e-39
1.9630734 -0.50451052 -5.1736833e-06 5.2551509e-39
1.9749247 -0.50514537 -6.9141388e-06 5.2551509e-39
1.9868691 -0.50578308 -6.6041948e-06 5.2551509e-39
1.9973861 -0.50444287 -7.5101852e-06 5.2551509e-39
2.0049434 -0.50566041 -8.225441e-06 5.2551509e-39
2.0125306 -0.50469673 -5.4836273e-06 5.2551509e-39
2.0239892 -0.50434196 -6.3180923e-06 5.2551509e-39
2.0355189 -0.5061841 -7.0333481e-06 5.2551509e-39
2.0432506 -0.5052132 -5.8412552e-06 5.2551509e-39
2.054924 -0.50485671 -6.0200691e-06 5.2551509e-39
2.0666714 -0.50449646 -6.7949295e-06 5.2551509e-39
2.0745513 -0.5035128 -6.5565109e-06 5.2551509e-39
2.0824676 -0.50475627 -5.7220459e-06 5.2551509e-39
2.0952199 -0.50541413 -6.5565109e-06 5.2551509e-39
2.1064465 -0.50402737 -5.6028366e-06 5.2551509e-39
2.1145167 -0.50528449 -6.0796738e-06 5.2551509e-39
2.1226237 -0.50654709 -5.364418e-06 5.2551509e-39
2.1348655 -0.50392032 -6.377697e-06 5.2551509e-39
2.1471851 -0.50582302 -7.0333481e-06 5.2551509e-39
2.1554501 -0.50481868 -6.4373016e-06 5.2551509e-39
2.1637557 -0.50380975 -6.5565109e-06 5.2551509e-39
2.1721008 -0.50508732 -6.0796738e-06 5.2551509e-39
2.1804891 -0.50407445 -7.1525574e-06 5.2551509e-39
2.1973848 -0.50664991 -6.5565109e-06 5.2551509e-39
2.2144487 -0.5069313 -7.2717667e-06 5.2551509e-39
2.2230415 -0.50358415 -6.3180923e-06 5.2551509e-39
2.2316821 -0.50488436 -8.7022781e-06 5.2551509e-39
2.249084 -0.50515932 -8.1062317e-06 5.2551509e-39
2.2578475 -0.50412285 -6.5565109e-06 5.2551509e-39
2.3023446 -0.50600111 -7.5101852e-06 5.2551509e-39
2.3113778 -0.50733596 -7.1525574e-06 5.2551509e-39
0.50474107 -0.49471596 -3.5131679e-06 5.3473465e-39
0.51474553 -0.49497077 -3.6103386e-06 5.3473465e-39
0.52485937 -0.4952285 -4.3406208e-06 5.3473465e-39
0.53498489 -0.49551845 -2.8045554e-06 5.3473465e-39
0.54564381 -0.49485061 -3.1590462e-06 5.3473465e-39
0.5538289 -0.49535951 -3.7352245e-06 5.3473465e-39
0.56093758 -0.49646637 -0.0072470349 5.3473465e-39
1.5486416 -0.49408388 -3.2186508e-06 6.730281e-39
1.5570865 -0.49562994 -4.2319298e-06 5.3473465e-39
1.5655779 -0.49529681 -6.5565109e-06 5.3473465e-39
1.5741221 -0.49496135 -5.1856041e-06 5.3473465e-39
1.5855929 -0.49514464 -5.3048134e-06 5.3473465e-39
1.5942527 -0.49480543 -4.529953e-06 5.3473465e-39
1.6023897 -0.49550742 -4.6968462e-06 5.3473465e-39
1.6146774 -0.49464872 -4.5895576e-06 5.3473465e-39
1.626479 -0.49483347 -5.0663948e-06 5.3473465e-39
1.6353923 -0.49448955 -7.1525574e-06 5.3473465e-39
1.6437629 -0.4952001 -5.5551527e-06 5.3473465e-39
1.6570117 -0.49521255 -4.5061111e-06 5.3473465e-39
1.6655036 -0.49593201 -4.8875809e-06 5.3473465e-39
1.6752764 -0.49451751 -5.6505205e-06 5.3473465e-39
1.6838754 -0.49523965 -6.3180923e-06 5.3473465e-39
1.6931484 -0.49488997 -5.0663948e-06 5.3473465e-39
1.7056006 -0.49508047 -4.529953e-06 5.3473465e-39
1.7150056 -0.49472708 -4.529953e-06 5.3473465e-39
1.7251122 -0.49527898 -6.0081484e-06 5.3473465e-39
1.7340037 -0.49401519 -5.7220459e-06 5.3473465e-39
1.7442383 -0.49456781 -6.3419343e-06 5.3473465e-39
1.7558304 -0.49494228 -5.5551527e-06 5.3473465e-39
1.7662078 -0.49550301 -6.0796738e-06 5.3473465e-39
1.7760063 -0.49514464 -5.2452087e-06 5.3473465e-39
1.7858628 -0.49478316 -5.364418e-06 5.3473465e-39
1.796455 -0.49534816 -6.4134597e-06 5.3473465e-39
1.805776 -0.49405456 -6.4373016e-06 5.3473465e-39
1.8165067 -0.49462071 -7.4625013e-06 5.3473465e-39
1.8259474 -0.4953768 -5.2452087e-06 5.3473465e-39
1.8361394 -0.49501187 -7.0333481e-06 5.3473465e-39
1.846388 -0.49464241 -6.1988831e-06 5.3473465e-39
1.853259 -0.49578103 -4.4107437e-06 5.3473465e-39
1.8636307 -0.49541396 -5.3048134e-06 5.3473465e-39
1.8740665 -0.49504384 -8.1062317e-06 5.3473465e-39
1.8845735 -0.49467081 -6.1988831e-06 5.3473465e-39
1.895143 -0.49429405 -4.4107437e-06 5.3473465e-39
1.9050839 -0.49506873 -5.7458878e-06 5.3473465e-39
1.9165123 -0.49565789 -6.6757202e-06 5.3473465e-39
1.9236966 -0.49469829 -5.364418e-06 5.2551509e-39
1.9345437 -0.49431956 -7.0929527e-06 5.2551509e-39
1.9454534 -0.49607688 -6.7949295e-06 5.2551509e-39
1.9527702 -0.49510989 -6.3180923e-06 5.2551509e-39
1.9638116 -0.49472794 -5.0663948e-06 5.2551509e-39
1.9749247 -0.49434319 -6.9141388e-06 5.2551509e-39
1.98537 -0.49513659 -5.38826e-06 5.2551509e-39
1.9973861 -0.49574137 -7.5101852e-06 5.2551509e-39
2.0049434 -0.49475837 -8.225441e-06 5.2551509e-39
2.0125306 -0.49376941 -5.4836273e-06 5.2551509e-39
2.0239892 -0.49556959 -6.3180923e-06 5.2551509e-39
2.0355189 -0.49518028 -7.0333481e-06 5.2551509e-39
2.0432506 -0.49418366 -5.8412552e-06 5.2551509e-39
2.054924 -0.49600199 -6.0200691e-06 5.2551509e-39
2.0666714 -0.49338892 -6.7949295e-06 5.2551509e-39
2.0745513 -0.49460581 -6.5565109e-06 5.2551509e-39
2.0824676 -0.49582821 -5.7220459e-06 5.2551509e-39
2.093621 -0.49441433 -6.5565109e-06 5.2551509e-39
2.1064465 -0.49503544 -5.6028366e-06 5.2551509e-39
2.1145167 -0.49627107 -6.0796738e-06 5.2551509e-39
2.1226237 -0.49525341 -5.364418e-06 5.2551509e-39
2.1351304 -0.49416989 -0.00053998071 5.2551509e-39
2.1471851 -0.49672258 -7.0333481e-06 5.2551509e-39
2.1554501 -0.49341571 -6.4373016e-06 5.2551509e-39
2.1637557 -0.49466521 -6.5565109e-06 5.2551509e-39
2.1721008 -0.4959206 -6.0796738e-06 5.2551509e-39
2.1804891 -0.49488541 -7.1525574e-06 5.2551509e-39
2.2144487 -0.49997169 -7.2717667e-06 5.2551509e-39
2.2230415 -0.49428177 -6.3180923e-06 5.2551509e-39
2.2316821 -0.49555895 -8.7022781e-06 5.2551509e-39
2.2578475 -0.49707657 -6.5565109e-06 5.2551509e-39
2.2666574 -0.49601793 -6.3180923e-06 5.2551509e-39
0.50467581 -0.48496467 -3.4868717e-06 5.3473465e-39
0.51463819 -0.48498008 -2.9518492e-06 5.3473465e-39
0.52472574 -0.48506749 -4.1583007e-06 5.3473465e-39
0.53387237 -0.485248 -2.4753458e-06 5.3473465e-39
0.54571205 -0.48487747 -3.2046262e-06 5.3473465e-39
0.55400968 -0.48522645 -3.667978e-06 5.3473465e-39
1.5486416 -0.4847005 -3.2186508e-06 6.730281e-39
1.5570865 -0.48433623 -4.2319298e-06 5.3473465e-39
1.5655779 -0.4858571 -6.5565109e-06 5.3473465e-39
1.5746937 -0.48445788 -5.5074693e-06 5.3473465e-39
1.5855927 -0.48563829 -5.3048134e-06 5.3473465e-39
1.5942527 -0.48527026 -4.529953e-06 5.3473465e-39
1.6029726 -0.48490143 -4.7087669e-06 5.3473465e-39
1.6146775 -0.48504555 -4.5895576e-06 5.3473465e-39
1.6264791 -0.48519114 -5.284945e-06 5.3473465e-39
1.6353923 -0.48481745 -7.1525574e-06 5.3473465e-39
1.6443633 -0.48444149 -6.0399375e-06 5.3473465e-39
1.6558037 -0.48564881 -5.6505205e-06 5.3473465e-39
1.6655048 -0.4842056 -5.8412552e-06 5.3473465e-39
1.6740526 -0.48489437 -6.3657762e-06 5.3473465e-39
1.6838754 -0.48540622 -6.3180923e-06 5.3473465e-39
1.6931491 -0.48502591 -5.7816505e-06 5.3473465e-39
1.7056012 -0.48517489 -5.0067902e-06 5.3473465e-39
1.7150092 -0.48479104 -7.390976e-06 5.3473465e-39
1.7238464 -0.48549262 -6.4611436e-06 5.3473465e-39
1.7340037 -0.4840149 -5.7220459e-06 5.3473465e-39
1.742955 -0.48471898 -5.7697298e-06 5.3473465e-39
1.7571243 -0.48468295 -5.7220459e-06 5.3473465e-39
1.7662078 -0.48539555 -6.0796738e-06 5.3473465e-39
1.7760071 -0.48500472 -5.6624413e-06 5.3473465e-39
1.7858628 -0.48461023 -5.364418e-06 5.3473465e-39
1.7951254 -0.48532805 -4.7683716e-06 5.3473465e-39
1.805776 -0.48586321 -6.4373016e-06 5.3473465e-39
1.8151623 -0.48453617 -7.7962877e-06 5.3473465e-39
1.8259474 -0.48507047 -5.2452087e-06 5.3473465e-39
1.8368206 -0.48560905 -6.8902968e-06 5.3473465e-39
1.846388 -0.48426807 -6.1988831e-06 5.3473465e-39
1.853259 -0.48538384 -4.4107437e-06 5.3473465e-39
1.8636307 -0.48498216 -5.3048134e-06 5.3473465e-39
1.8740665 -0.48457739 -8.1062317e-06 5.3473465e-39
1.8852764 -0.4851214 -6.4611436e-06 5.3473465e-39
1.895143 -0.48375744 -4.4107437e-06 5.3473465e-39
1.9057962 -0.48545954 -5.7816505e-06 5.3473465e-39
1.9165121 -0.48505011 -6.6757202e-06 5.3473465e-39
1.9236962 -0.48406646 -4.8875809e-06 5.3473465e-39
1.9345429 -0.4857851 -6.4969063e-06 5.2551509e-39
1.9454533 -0.48537287 -6.7949295e-06 5.2551509e-39
1.9527702 -0.48438141 -6.3180923e-06 5.2551509e-39
1.96455 -0.48493847 -4.9591063e-06 5.2551509e-39
1.9749247 -0.48354101 -6.9141388e-06 5.2551509e-39
1.9861186 -0.48528439 -5.2452087e-06 5.2551509e-39
1.9973837 -0.48486385 -5.7617822e-06 5.2551509e-39
2.0049434 -0.48385626 -8.225441e-06 5.2551509e-39
2.0125306 -0.48502755 -5.4836273e-06 5.2551509e-39
2.024755 -0.48559815 -6.1988831e-06 5.2551509e-39
2.0355189 -0.48417643 -7.0333481e-06 5.2551509e-39
2.0432506 -0.48536003 -5.8412552e-06 5.2551509e-39
2.0557046 -0.48593703 -6.0796738e-06 5.2551509e-39
2.0666697 -0.48450246 -5.6028366e-06 5.2551509e-39
2.0745513 -0.48569879 -6.5565109e-06 5.2551509e-39
2.0824676 -0.48466814 -5.7220459e-06 5.2551509e-39
2.0944204 -0.48423442 -6.5565109e-06 5.2551509e-39
2.1064465 -0.48604351 -5.6028366e-06 5.2551509e-39
2.1145167 -0.48500431 -6.0796738e-06 5.2551509e-39
2.1226237 -0.48395965 -5.364418e-06 5.2551509e-39
2.1348646 -0.48578495 -5.7816505e-06 5.2551509e-39
2.1471851 -0.48534712 -7.0333481e-06 5.2551509e-39
2.1554501 -0.48429328 -6.4373016e-06 5.2551509e-39
2.1637557 -0.48552072 -6.5565109e-06 5.2551509e-39
2.1721008 -0.48675382 -6.0796738e-06 5.2551509e-39
2.1804891 -0.48339906 -7.1525574e-06 5.2551509e-39
2.2144468 -0.48141229 -6.1988831e-06 5.2551509e-39
2.2230406 -0.48497918 -5.7816505e-06 5.2551509e-39
2.2316821 -0.48623356 -8.7022781e-06 5.2551509e-39
2.2666574 -0.48659945 -6.3180923e-06 5.2551509e-39
2.4138515 -0.48078471 -6.0796738e-06 5.2551509e-39
0.50461 -0.47521445 -3.0223061e-06 5.3473465e-39
0.51473629 -0.47488776 -0.00043477275 5.3473465e-39
0.52512705 -0.47491473 -3.3869462e-06 5.3473465e-39
0.53458703 -0.47481394 -2.7815502e-06 5.3473465e-39
0.54575241 -0.47463048 -3.3542558e-05 5.3473465e-39
0.5538289 -0.47511747 -3.7550926e-06 5.3473465e-39
1.5486426 -0.47531748 -4.0928521e-06 6.730281e-39
1.5570869 -0.47492486 -4.5895576e-06 5.3473465e-39
1.5655779 -0.47452939 -6.5565109e-06 5.3473465e-39
1.5735505 -0.47516665 -4.8875809e-06 5.3473465e-39
1.5861695 -0.47509068 -6.0558318e-06 5.3473465e-39
1.5942541 -0.47573557 -5.8412552e-06 5.3473465e-39
1.6035564 -0.47428966 -5.6505205e-06 5.3473465e-39
1.6146792 -0.47544292 -6.0200691e-06 5.3473465e-39
1.6270723 -0.47449237 -5.7220459e-06 5.3473465e-39
1.6353923 -0.47514534 -7.1525574e-06 5.3473465e-39
1.6443636 -0.47473961 -6.2584877e-06 5.3473465e-39
1.6564087 -0.47484371 -5.9008598e-06 5.3473465e-39
1.6655054 -0.47443345 -6.3180923e-06 5.3473465e-39
1.6752775 -0.47490817 -6.508827e-06 5.3473465e-39
1.6838719 -0.47557175 -3.695488e-06 5.3473465e-39
1.6931491 -0.47516161 -5.7816505e-06 5.3473465e-39
1.7056012 -0.47526908 -5.0067902e-06 5.3473465e-39
1.7150092 -0.47485396 -7.390976e-06 5.3473465e-39
1.7251129 -0.47533774 -6.532669e-06 5.3473465e-39
1.7340037 -0.47401461 -5.7220459e-06 5.3473465e-39
1.7442367 -0.4744986 -4.9829482e-06 5.3473465e-39
1.7558308 -0.47479644 -5.8412552e-06 5.3473465e-39
1.7662078 -0.47528803 -6.0796738e-06 5.3473465e-39
1.7760071 -0.47486463 -5.6624413e-06 5.3473465e-39
1.7858628 -0.47443736 -5.364418e-06 5.3473465e-39
1.7954297 -0.47441801 -0.00053427235 5.3473465e-39
1.8057748 -0.4756237 -5.5631003e-06 5.3473465e-39
1.8158345 -0.47519672 -7.6293945e-06 5.3473465e-39
1.8259474 -0.47476414 -5.2452087e-06 5.3473465e-39
1.8354584 -0.47546211 -7.1763993e-06 5.3473465e-39
1.846388 -0.47596857 -6.1988831e-06 5.3473465e-39
1.853259 -0.47498664 -4.4107437e-06 5.3473465e-39
1.8636307 -0.47455046 -5.3048134e-06 5.3473465e-39
1.8740665 -0.47620419 -8.1062317e-06 5.3473465e-39
1.8838704 -0.47481623 -5.9366225e-06 5.3473465e-39
1.895143 -0.47532809 -4.4107437e-06 5.3473465e-39
1.9062433 -0.47488084 -0.00046300833 5.2551509e-39
1.9165123 -0.47444236 -6.6757202e-06 5.3473465e-39
1.9236962 -0.47556114 -4.8875809e-06 5.3473465e-39
1.9345421 -0.47511712 -5.9008598e-06 5.2551509e-39
1.9454534 -0.47466874 -6.7949295e-06 5.2551509e-39
1.9527702 -0.4757987 -6.3180923e-06 5.2551509e-39
1.9630734 -0.47437492 -5.1736833e-06 5.2551509e-39
1.9749247 -0.47489929 -6.9141388e-06 5.2551509e-39
1.986867 -0.47542518 -5.1021575e-06 5.2551509e-39
1.9973826 -0.47398663 -4.8875809e-06 5.2551509e-39
