# .PCD v0.7 - Point Cloud Data file format
VERSION 0.7
FIELDS x y z rgb
SIZE 4 4 4 4
TYPE F F F F
COUNT 1 1 1 1
WIDTH 875
HEIGHT 1
VIEWPOINT 0 0 0 1 0 0 0
POINTS 875
DATA ascii
0.52362311 -0.33064562 0.63060528 6.1778541e-39
0.51729357 -0.32303831 0.63735479 3.0439916e-39
0.52232611 -0.32983387 0.63805616 6.2700525e-39
0.51657301 -0.31453216 0.6363973 2.8599605e-39
0.51874632 -0.30508012 0.63482529 2.8599577e-39
0.52025795 -0.30048686 0.63832796 2.8599577e-39
0.51982135 -0.29749367 0.63064641 2.8599577e-39
0.52115172 -0.29466432 0.63537145 2.8599577e-39
0.52250957 -0.28497711 0.63493145 2.8599577e-39
0.52390361 -0.27475145 0.63498038 3.1361816e-39
0.52513689 -0.26509994 0.6348629 7.1923858e-39
0.5265497 -0.25512373 0.6350053 1.1524457e-38
0.52792561 -0.24472581 0.63532102 1.1616651e-38
0.52869302 -0.2352871 0.6350174 1.1708845e-38
0.52953345 -0.22546017 0.63423508 1.1708845e-38
0.53007042 -0.2207939 0.63645673 1.1801041e-38
0.52980268 -0.2185854 0.63435161 1.1431898e-38
0.53073967 -0.21469362 0.63571638 1.1801041e-38
0.53200048 -0.20511745 0.63493788 1.1708845e-38
0.5336327 -0.19507405 0.63505465 7.7451952e-39
0.53596449 -0.18506205 0.6350866 2.8599577e-39
0.53845167 -0.17545548 0.63497728 3.0425441e-39
0.54030567 -0.17061551 0.63697475 2.9510701e-39
0.54228365 -0.16486195 0.63509423 5.1467885e-39
0.54440987 -0.15956914 0.63531154 4.6908662e-39
0.52925038 -0.080484927 0.63071954 1.3460199e-38
0.53286833 -0.081628688 0.63182652 1.4750578e-38
0.51947993 -0.071421199 0.63393217 8.942616e-39
0.52496964 -0.076077268 0.63355309 1.2261654e-38
0.50970989 -0.061021756 0.63600409 8.9418957e-39
0.5142408 -0.065880015 0.63494951 8.9418957e-39
0.50512666 -0.055250462 0.63504928 1.032555e-38
0.49857798 -0.043501582 0.63464892 1.1522649e-38
0.50108969 -0.048221935 0.63516563 1.1616286e-38
0.49740571 -0.036873747 0.63546938 1.1058434e-38
0.50207734 -0.03172192 0.63504958 1.1149549e-38
0.50696236 -0.027283793 0.63498515 1.1057353e-38
0.512936 -0.022054367 0.63514584 1.0410542e-38
0.51748109 -0.018105421 0.6344229 1.0595293e-38
0.52310807 -0.013230493 0.63414282 8.9339587e-39
0.52853847 -0.0085564964 0.63452524 6.3456175e-39
0.53407514 -0.0038412379 0.63483226 6.6204066e-39
0.53865325 0.00011765026 0.63518536 6.8033601e-39
0.54481453 0.0057120961 0.63475138 6.7118833e-39
0.55473399 0.014611322 0.63468075 6.8033601e-39
0.56034476 0.019525355 0.63520455 7.0777904e-39
0.56558043 0.024198197 0.63511217 7.2621816e-39
0.57127416 0.029495472 0.63412666 9.8494424e-39
0.576051 0.033890426 0.63458198 9.9420052e-39
0.58274955 0.038258497 0.6356259 9.9376794e-39
0.5868848 0.042118814 0.63583237 9.8440446e-39
0.59190375 0.045677647 0.63568872 9.8436845e-39
0.45527714 0.19719207 0.63514185 5.6228516e-39
0.46241471 0.19447221 0.6350553 7.5571508e-39
0.44720757 0.20571899 0.63492936 4.9771207e-39
0.45077267 0.20083277 0.63505638 5.0696792e-39
0.43865737 0.21832676 0.6343056 4.6998107e-39
0.44229162 0.2132726 0.63491458 4.9771221e-39
0.43396178 0.22492267 0.63542455 5.0700408e-39
0.42852664 0.23554368 0.63555092 5.2551565e-39
0.43045124 0.23060392 0.63519585 4.8852866e-39
0.42830908 0.24261901 0.63580734 6.3618628e-39
0.43144333 0.24767619 0.63775134 6.8232011e-39
0.51818448 -0.32220981 0.64410377 2.9521575e-39
0.52050978 -0.32701397 0.64253861 3.9655626e-39
0.51771951 -0.31409746 0.6453321 2.9521561e-39
0.51920968 -0.30709848 0.6439774 2.8599577e-39
0.52074599 -0.30288014 0.64599764 2.8599577e-39
0.52257562 -0.29497513 0.64497322 2.8599577e-39
0.52418816 -0.2849752 0.64499426 2.8599577e-39
0.5251863 -0.27496907 0.64496046 4.8875203e-39
0.52643889 -0.2649951 0.64488232 1.1616651e-38
0.5278244 -0.25517809 0.64511389 1.1708845e-38
0.51943994 -0.24360783 0.64447105 8.5742202e-39
0.52915233 -0.24527562 0.64533114 1.1801041e-38
0.5296374 -0.23572174 0.642676 1.1801041e-38
0.53040928 -0.2343619 0.64710945 1.1801041e-38
0.52990484 -0.22715425 0.64082068 1.1801041e-38
0.53076786 -0.22482835 0.64551103 1.1801041e-38
0.53145063 -0.21516602 0.64538074 1.1801041e-38
0.53264832 -0.20489834 0.6447863 1.1801041e-38
0.53457987 -0.19504169 0.64475751 1.1247872e-38
0.53670049 -0.18501441 0.64479524 3.1365404e-39
0.53888065 -0.17694816 0.64478773 2.8599577e-39
0.54077971 -0.17220385 0.64575601 2.8599577e-39
0.54376751 -0.16486585 0.64464569 2.9514316e-39
0.55199653 -0.16132396 0.6425494 3.689745e-39
0.54578841 -0.15952477 0.64296013 3.9594473e-39
0.52964026 -0.080749214 0.64800942 9.0027597e-39
0.53314978 -0.083274402 0.64593595 9.8418838e-39
0.51846194 -0.070534155 0.64506543 8.7355363e-39
0.52399349 -0.075476423 0.64366013 9.2905107e-39
0.50973845 -0.060487773 0.64423561 8.7355363e-39
0.5140546 -0.065492302 0.64470237 8.7344559e-39
0.50573403 -0.054997075 0.64412177 9.0074414e-39
0.51969087 -0.056591045 0.6457122 1.0786527e-38
0.49876696 -0.042715024 0.64532048 9.2865493e-39
0.50162202 -0.047185864 0.64252537 9.2843885e-39
0.4981809 -0.037293617 0.64538831 9.1896719e-39
0.50255412 -0.032461774 0.64582413 8.9084033e-39
0.5073446 -0.027466577 0.64537883 7.7141817e-39
0.51231378 -0.022816682 0.6458987 6.6121557e-39
0.51712269 -0.017748479 0.6449548 6.5210405e-39
0.52351493 -0.012958448 0.64455664 6.7958267e-39
0.52874953 -0.0083103133 0.6452018 8.4488656e-39
0.53380859 -0.0038581633 0.64519608 8.7243721e-39
0.53849769 0.00028455196 0.64498657 8.7243721e-39
0.54494858 0.0061293142 0.64499801 8.7243721e-39
0.55483216 0.015033228 0.64515513 8.7243721e-39
0.56004852 0.019539399 0.64243501 8.7243721e-39
0.56580758 0.024746545 0.64507163 8.7243721e-39
0.57105225 0.02943182 0.64529294 8.7243721e-39
0.57575071 0.033388004 0.64438409 8.7243721e-39
0.58151233 0.038641103 0.64641893 8.7247323e-39
0.58686227 0.042894393 0.64623785 8.7243721e-39
0.59122717 0.046323307 0.6460219 8.7254525e-39
0.45581111 0.19764026 0.64303035 6.5513184e-39
0.46148077 0.19477175 0.64476168 7.3799944e-39
0.44737047 0.20593597 0.64462715 6.1821743e-39
0.45105746 0.20104457 0.64630872 6.2743713e-39
0.4388923 0.21826278 0.64485705 6.1821757e-39
0.44247115 0.21321087 0.6453976 6.1821757e-39
0.43414459 0.22487441 0.64509314 6.1821757e-39
0.42851448 0.23538633 0.64491355 6.1821743e-39
0.43025512 0.2306962 0.64697921 6.1821757e-39
0.42889771 0.24307103 0.64385116 6.2740084e-39
0.43123874 0.2472346 0.64501005 6.639893e-39
0.43464363 0.25124016 0.64562976 7.1919794e-39
0.51831412 -0.32378227 0.65267968 3.4131371e-39
0.52091837 -0.32448801 0.65668738 2.9521575e-39
0.5188185 -0.31611419 0.65135068 3.5053467e-39
0.52127349 -0.31474081 0.65512836 3.2287528e-39
0.51945102 -0.3098399 0.65043586 3.22875e-39
0.52173078 -0.30519906 0.65427929 3.136553e-39
0.52377135 -0.29506677 0.65501153 2.8599577e-39
0.52530855 -0.28473741 0.65516251 2.8599577e-39
0.52631468 -0.27526104 0.65494365 7.7451938e-39
0.52753025 -0.26514715 0.65520912 1.0047879e-38
0.52882886 -0.25484148 0.65473992 9.5876224e-39
0.53002626 -0.2504136 0.6595521 8.0188534e-39
0.52962255 -0.24760635 0.65328145 9.4025109e-39
0.53037244 -0.24392462 0.65609717 8.5723887e-39
0.53128922 -0.23490298 0.6549316 8.9411698e-39
0.53229737 -0.22490692 0.65503269 8.8486127e-39
0.53304791 -0.2149837 0.65556818 9.6787349e-39
0.53359663 -0.20518638 0.65481859 1.1524094e-38
0.53494173 -0.19476976 0.65525216 8.7593359e-39
0.53707737 -0.18485638 0.65496045 2.8599577e-39
0.53928679 -0.17789511 0.65511304 2.8599577e-39
0.54095387 -0.1730057 0.65504128 2.8599577e-39
0.54416341 -0.16462043 0.65483111 2.8599577e-39
0.54901862 -0.15899749 0.65602672 2.8599577e-39
0.55233443 -0.15704267 0.65820247 4.1503224e-39
0.53346676 -0.082386367 0.65161371 9.1889516e-39
0.51911956 -0.071438447 0.65495193 8.7243721e-39
0.52348477 -0.075606607 0.65418792 8.7243721e-39
0.50994229 -0.061192714 0.65750957 8.7243721e-39
0.51402217 -0.065801844 0.65530372 8.7243721e-39
0.50490326 -0.055328827 0.65522575 8.7243721e-39
0.49835101 -0.04439646 0.65525168 9.5688997e-39
0.49922603 -0.039206866 0.65041131 9.1853503e-39
0.50306582 -0.03489821 0.65410489 7.9896882e-39
0.50807768 -0.027419882 0.6556254 6.5203202e-39
0.51261616 -0.02250771 0.65495515 6.5203202e-39
0.51808012 -0.018036889 0.65403241 6.7958267e-39
0.52391839 -0.012930916 0.65449035 7.8060172e-39
0.52872258 -0.0083286427 0.65559286 8.7243721e-39
0.53382015 -0.0034964993 0.65460074 8.7243721e-39
0.53893107 0.0012458581 0.65516019 8.7243721e-39
0.54476285 0.006483315 0.65531743 8.7243721e-39
0.5551613 0.015708571 0.6548714 8.7243721e-39
0.5634321 0.01390155 0.65758204 8.7243721e-39
0.56475621 0.024164105 0.65510952 8.7243721e-39
0.57057887 0.029373227 0.65528345 8.7243721e-39
0.57594001 0.034176033 0.6548934 8.7243721e-39
0.58142215 0.03903418 0.65453821 8.7243721e-39
0.58640158 0.043392275 0.65493053 8.7243721e-39
0.4549835 0.19694486 0.65548694 7.0108518e-39
0.464991 0.19453365 0.65479374 7.468932e-39
0.4703429 0.19520825 0.65964305 7.2838163e-39
0.44747695 0.20639855 0.65478969 6.2743699e-39
0.45091039 0.20115884 0.65479481 6.7349851e-39
0.43910658 0.21841341 0.65487903 6.1821757e-39
0.44256786 0.21362163 0.65501362 6.1821757e-39
0.43444368 0.22479548 0.65466422 6.5505953e-39
0.42901707 0.23651484 0.65337837 6.3665656e-39
0.43079102 0.23246391 0.65570301 6.7349851e-39
0.42843577 0.24290392 0.65529764 6.3658425e-39
0.43178213 0.24823275 0.65622467 5.8094079e-39
0.43557528 0.25154999 0.65383703 6.7306411e-39
0.52261674 -0.3304618 0.66464889 6.6384833e-39
0.51962173 -0.32420146 0.66606629 2.2142099e-39
0.52244318 -0.32960331 0.66753209 6.6384833e-39
0.519813 -0.31617704 0.66486043 2.8599577e-39
0.52013117 -0.31335706 0.66749233 2.8599577e-39
0.51989841 -0.30897579 0.66319561 2.8599577e-39
0.52134585 -0.30426839 0.66552132 2.8599577e-39
0.53257632 -0.30212525 0.66991681 3.0443545e-39
0.52419662 -0.29524118 0.66533417 2.8599577e-39
0.52650166 -0.28533038 0.66500413 4.3347122e-39
0.52766299 -0.27475381 0.66467535 1.1155675e-38
0.52882218 -0.26522434 0.66515172 7.1865648e-39
0.52960163 -0.25716591 0.66332394 7.0018134e-39
0.53045887 -0.25319952 0.66641778 5.892219e-39
0.5314163 -0.24469633 0.66492081 5.8922176e-39
0.53257436 -0.23510402 0.66509831 5.8922176e-39
0.53369415 -0.22500534 0.66496378 6.2620833e-39
0.53472829 -0.21499786 0.66538137 6.817062e-39
0.53525954 -0.20503956 0.66528064 8.5716642e-39
0.53603745 -0.19525059 0.66505438 1.0971647e-38
0.53811222 -0.18490469 0.66425246 3.1365404e-39
0.53957635 -0.17873637 0.66532314 2.8599577e-39
0.54118776 -0.17366786 0.66521603 2.8599577e-39
0.54463083 -0.1649477 0.66537309 2.8599577e-39
0.54905015 -0.15857691 0.66622353 2.8599577e-39
0.55395466 -0.15706806 0.66363597 3.4131301e-39
0.56126624 -0.15799087 0.66481847 4.9800788e-39
0.52893674 -0.08128944 0.6650427 8.7243721e-39
0.53139108 -0.083688639 0.66559666 9.0067212e-39
0.51900232 -0.071018338 0.66578555 8.7243721e-39
0.52375293 -0.075986572 0.66444761 8.7243721e-39
0.50958401 -0.060690034 0.66470057 8.7243721e-39
0.51413 -0.065730549 0.66518176 8.7243721e-39
0.50431103 -0.054725949 0.66482377 8.8162076e-39
0.49812594 -0.045063023 0.66424161 9.7367234e-39
0.50049359 -0.046581417 0.66778207 1.0014751e-38
0.4985275 -0.037238535 0.66647136 8.7247323e-39
0.5021764 -0.031496778 0.66699064 5.7856363e-39
0.50662154 -0.027202792 0.66610664 6.7039912e-39
0.51258892 -0.02217494 0.66434902 6.4284847e-39
0.51770633 -0.017678564 0.66498023 7.4386752e-39
0.52330816 -0.01260727 0.66537303 8.7243721e-39
0.52870119 -0.007734553 0.66480488 8.7243721e-39
0.53371227 -0.0032347881 0.66502583 8.7243721e-39
0.5387491 0.0012991934 0.6652652 8.7243721e-39
0.54457116 0.0065570781 0.66443217 8.7243721e-39
0.54845959 0.010032163 0.66603202 8.7243721e-39
0.55488098 0.015585989 0.66536134 8.7243721e-39
0.56521982 0.024704859 0.6644668 8.7243721e-39
0.57024753 0.029317364 0.66493696 8.7243721e-39
0.5755567 0.034158479 0.66540706 8.7243721e-39
0.58147418 0.03921286 0.6663121 8.9080431e-39
0.58655614 0.04296428 0.66515291 8.9998786e-39
0.59288198 0.045552649 0.6677177 9.4601365e-39
0.45601273 0.1967188 0.66497236 7.0112105e-39
0.4608832 0.19404404 0.667925 8.8536713e-39
0.44745928 0.20621139 0.66467673 7.563664e-39
0.45101485 0.20122875 0.66513497 7.0112119e-39
0.43899208 0.21852644 0.66483426 3.2341016e-39
0.44261083 0.21343808 0.66519195 3.4184914e-39
0.43423387 0.22488934 0.66519499 5.7219234e-39
0.42884031 0.23631002 0.66570222 7.1034061e-39
0.43044505 0.23094442 0.66489488 8.1164734e-39
0.42911276 0.24240491 0.66518503 6.0896185e-39
0.43173409 0.24709961 0.66391659 5.3491542e-39
0.43674222 0.25264531 0.66496187 7.007228e-39
0.51990217 -0.32428375 0.67162275 2.3060468e-39
0.5206151 -0.32388461 0.67618501 2.6751937e-39
0.52033269 -0.31505024 0.67450958 2.8599577e-39
0.52178264 -0.30498281 0.67478341 2.8599577e-39
0.52478224 -0.29487047 0.67491508 2.8599577e-39
0.52732593 -0.28515217 0.67490149 9.9575064e-39
0.52862936 -0.27524287 0.67511964 1.1708845e-38
0.52952719 -0.26615983 0.67340136 7.6464625e-39
0.53037018 -0.26280886 0.67688483 7.3698742e-39
0.53115046 -0.25511998 0.67498511 5.8914988e-39
0.53254187 -0.24538644 0.67489481 5.983693e-39
0.53406537 -0.23497273 0.67491561 5.8914988e-39
0.53542709 -0.22484493 0.67496949 5.983693e-39
0.53630733 -0.21528742 0.67473191 6.0762501e-39
0.54397202 -0.21212143 0.67848104 7.009435e-39
0.53686529 -0.20512158 0.67490041 7.7386582e-39
0.53753197 -0.19482271 0.67541009 1.1708845e-38
0.53838462 -0.18526214 0.67451823 3.9659339e-39
0.5403077 -0.181733 0.67866492 2.8599577e-39
0.53964913 -0.17911795 0.67134362 2.8599577e-39
0.54236889 -0.1750118 0.67543793 2.8599577e-39
0.54664207 -0.16511776 0.67512774 2.8599577e-39
0.54946953 -0.15878069 0.67510909 2.8599577e-39
0.55045938 -0.15676102 0.67586911 2.8599577e-39
0.52892619 -0.081225373 0.67379123 9.470579e-39
0.5322566 -0.08382763 0.67486411 9.9391199e-39
0.51908726 -0.071223728 0.67354584 8.8241306e-39
0.52400559 -0.076416768 0.67546922 9.7522091e-39
0.50877011 -0.060116384 0.67247224 8.8183684e-39
0.51382256 -0.065600924 0.67516351 8.9217282e-39
0.50427008 -0.054858848 0.67512268 9.474902e-39
0.4969447 -0.044495981 0.67685616 9.5782604e-39
0.49858057 -0.038010713 0.6740908 6.0647441e-39
0.5026449 -0.033300363 0.67414361 6.7958267e-39
0.50774866 -0.027013149 0.67393225 6.3366492e-39
0.51275015 -0.021817252 0.67464519 7.2550042e-39
0.5176512 -0.017342297 0.67555785 8.6325366e-39
0.52277404 -0.012736423 0.67465985 8.7243721e-39
0.52767509 -0.0083671957 0.6746462 8.7243721e-39
0.53359592 -0.0030217348 0.67564094 8.7243721e-39
0.53785205 0.0024091967 0.67439228 8.8176482e-39
0.54389179 0.0062141623 0.6747418 8.7243721e-39
0.54881364 0.010652506 0.67640096 8.7243721e-39
0.55488795 0.015865434 0.67469645 8.7243721e-39
0.5686757 0.018369474 0.67499352 1.871571e-38
0.56471193 0.024414293 0.67465866 8.7243721e-39
0.57017612 0.029258462 0.67541403 8.7243721e-39
0.57520312 0.033983517 0.67523462 8.7243721e-39
0.58061951 0.039069023 0.67643994 8.7243721e-39
0.58326948 0.041522779 0.6782859 8.7243721e-39
0.45587137 0.19691411 0.67517906 7.6558568e-39
0.46413112 0.19411129 0.67347962 8.668557e-39
0.47011581 0.19083461 0.6717602 5.4377387e-39
0.44751373 0.20638205 0.67519623 6.1814582e-39
0.45108441 0.20141754 0.67502195 6.4584011e-39
0.43896562 0.21869442 0.67513305 2.4907842e-39
0.44263425 0.21379192 0.67461216 3.0432321e-39
0.43435553 0.225137 0.67500693 4.3364835e-39
0.42971662 0.2358751 0.67322165 6.1821757e-39
0.43055588 0.23298267 0.67553836 6.1821757e-39
0.42940637 0.24306606 0.67516315 6.366204e-39
0.43199018 0.24807262 0.67637414 6.3629446e-39
0.4408966 0.24961829 0.67017418 6.4565906e-39
0.43617862 0.25199747 0.67524809 6.8231969e-39
0.52452791 -0.33061901 0.68540555 3.688942e-39
0.52285796 -0.32470033 0.68423855 2.2142099e-39
0.52095127 -0.31501353 0.68425447 2.8599577e-39
0.52190256 -0.30512756 0.68519109 2.8599577e-39
0.52510297 -0.29521218 0.68499792 2.8599577e-39
0.52795881 -0.28504917 0.68502831 1.0602869e-38
0.5294165 -0.27567086 0.6848399 1.1801041e-38
0.53009856 -0.27102375 0.68615729 1.1801041e-38
0.52998626 -0.2692095 0.68054658 1.1708845e-38
0.53083909 -0.2650685 0.68548685 1.1708845e-38
0.53210598 -0.25484383 0.68479079 1.0324104e-38
0.5335924 -0.24478576 0.68507659 9.2163134e-39
0.53505129 -0.23525222 0.68494427 8.8471693e-39
0.53658044 -0.22532175 0.68496591 9.1241163e-39
0.53769422 -0.21478634 0.68498588 1.0047157e-38
0.53832918 -0.20500167 0.68463314 1.1524094e-38
0.53887051 -0.19537197 0.6849981 1.1063483e-38
0.53935575 -0.18687482 0.68410331 4.5191007e-39
0.54045373 -0.18273671 0.68663412 2.8599577e-39
0.54222888 -0.17517972 0.68582505 2.8599577e-39
0.53965133 -0.16791648 0.68555826 3.8737383e-39
0.54532337 -0.16498198 0.6868068 2.8599577e-39
0.54870564 -0.15858322 0.68494737 2.8599577e-39
0.55393761 -0.15657304 0.6862058 3.0443517e-39
0.52820969 -0.082329161 0.68537599 1.2072581e-38
0.53314179 -0.083746195 0.6865356 1.3644952e-38
0.51827669 -0.071278028 0.68527496 8.9418957e-39
0.52355337 -0.076222666 0.68476802 1.0878003e-38
0.50899166 -0.060811952 0.68512714 8.9418957e-39
0.51320761 -0.06566029 0.68564719 8.9422558e-39
0.50443357 -0.055185437 0.68514961 1.0694693e-38
0.49774274 -0.044276953 0.68376976 1.1431175e-38
0.5007782 -0.048621673 0.68564129 1.1524091e-38
0.49785241 -0.03703665 0.68708819 8.6620634e-39
0.5023185 -0.032302734 0.68575352 8.6494615e-39
0.50754791 -0.026555039 0.6852392 8.1845219e-39
0.51239747 -0.021761235 0.68446553 9.1911124e-39
0.51700693 -0.017579945 0.68588966 9.657131e-39
0.52256018 -0.012618058 0.68425244 9.2847472e-39
0.52749914 -0.008107502 0.68519884 9.4723825e-39
0.53339583 -0.0028334428 0.68492013 6.8019812e-39
0.53818297 0.0021446189 0.68468755 6.616511e-39
0.54362386 0.0063494369 0.6853705 5.7003294e-39
0.54881412 0.010991421 0.68494922 5.7918048e-39
0.55507815 0.016468659 0.68447995 6.5286397e-39
0.56512529 0.025020478 0.68543035 1.0217509e-38
0.57001227 0.029206332 0.68457818 1.0122792e-38
0.57562095 0.034337249 0.68477833 1.0216789e-38
0.58053756 0.038950369 0.68546319 1.0404061e-38
0.58558661 0.043127112 0.68532825 1.0590612e-38
0.45631406 0.19749498 0.68467957 6.8271836e-39
0.46266225 0.19420481 0.68550807 7.9320808e-39
0.44738236 0.20675491 0.68484348 7.010493e-39
0.4512175 0.20148133 0.68510717 7.3796329e-39
0.43901271 0.21853492 0.68519199 2.8577646e-39
0.4425067 0.21369429 0.68492037 3.3183757e-39
0.43480295 0.22483206 0.68477678 4.9804067e-39
0.4283725 0.23667367 0.68527019 8.0239149e-39
0.43102789 0.23163703 0.68503994 8.2086691e-39
0.42880151 0.24159122 0.68375134 6.3647537e-39
0.43205947 0.24634653 0.68509614 6.0859948e-39
0.43510339 0.2508086 0.68626261 6.638807e-39
0.44105411 0.2546351 0.68659353 7.6525988e-39
0.52230424 -0.32382852 0.6955561 2.7677592e-39
0.52132106 -0.31441587 0.69532096 2.8599577e-39
0.52321082 -0.30483142 0.69472706 2.8599577e-39
0.52596062 -0.29487336 0.69484508 2.8599577e-39
0.52858025 -0.28495491 0.69491237 9.4043382e-39
0.52969444 -0.27764159 0.69272792 1.1801041e-38
0.53067058 -0.27381009 0.69575828 1.1801041e-38
0.53186411 -0.26476267 0.69506574 1.1801041e-38
0.53317446 -0.25520417 0.69494897 1.1801041e-38
0.53460127 -0.24508817 0.69501889 1.1801041e-38
0.53603768 -0.23469752 0.69501156 1.1801041e-38
0.53735858 -0.2248598 0.69503736 1.1801041e-38
0.53865451 -0.21535143 0.69536865 1.1708845e-38
0.53951246 -0.20590004 0.69342101 1.1708845e-38
0.54033726 -0.20306934 0.69746631 8.3905576e-39
0.53978467 -0.19621401 0.69104993 1.0141896e-38
0.54066688 -0.19474383 0.69580626 5.8094667e-39
0.54136854 -0.18491587 0.69503337 2.8599577e-39
0.54372042 -0.17488036 0.69439149 2.8599577e-39
0.53728843 -0.1644745 0.69680142 2.8822411e-39
0.54734343 -0.16487676 0.69378644 2.8599577e-39
0.54952198 -0.15942129 0.69456035 2.8599577e-39
0.55161345 -0.15783553 0.69606233 2.8599577e-39
0.563389 -0.15794399 0.69036508 3.5975185e-39
0.53552198 -0.082780108 0.69434774 1.5949841e-38
0.54133046 -0.082355894 0.69845152 1.5304112e-38
0.51870751 -0.071355127 0.69428384 9.127366e-39
0.52394754 -0.07589522 0.6952166 1.1985429e-38
0.50911027 -0.06022805 0.69389278 8.9429761e-39
0.51417524 -0.065393157 0.69608575 9.7727368e-39
0.5577786 -0.066484995 0.69990677 1.6963633e-38
0.50468212 -0.05483279 0.69527662 1.0786887e-38
0.51047665 -0.059943564 0.69956821 1.0325911e-38
0.49786147 -0.044217639 0.69582945 1.1432618e-38
0.50011057 -0.041350275 0.69888794 1.0880165e-38
0.49882805 -0.038560595 0.69366908 8.8496903e-39
0.50262427 -0.034666289 0.69565964 1.1523729e-38
0.507505 -0.027529692 0.69522667 1.216946e-38
0.51226956 -0.022716336 0.69590557 1.2445686e-38
0.51749307 -0.017732564 0.69499439 1.1892513e-38
0.52323496 -0.012748849 0.69585168 1.2261656e-38
0.5279063 -0.0083451765 0.69528282 1.2077266e-38
0.53375083 -0.0033908703 0.69584101 4.8878846e-39
0.53869617 0.0016888038 0.69436443 2.8595975e-39
0.54457456 0.005866155 0.69640177 2.8599577e-39
0.54882061 0.010730706 0.69343191 2.8595975e-39
0.55521202 0.015221221 0.69580781 4.6109418e-39
0.56098777 0.019248992 0.69837892 1.0694694e-38
0.56555396 0.024085036 0.69536853 1.0786887e-38
0.57114494 0.028351905 0.69699937 1.0233715e-38
0.57601285 0.033407897 0.69448388 1.0509939e-38
0.58238453 0.037967298 0.69589323 9.9571266e-39
0.58702594 0.042057849 0.69394147 1.050994e-38
0.59137595 0.044507626 0.69587433 9.9571266e-39
0.4564994 0.19780639 0.69532681 6.2736483e-39
0.46345744 0.19439125 0.69497329 8.3001402e-39
0.47027862 0.19679491 0.69912905 9.2210091e-39
0.44769219 0.20662409 0.69461173 6.0899801e-39
0.45134136 0.2017803 0.69547093 6.0899801e-39
0.43857995 0.2184006 0.69474077 4.9814773e-39
0.44264176 0.21390991 0.69542968 5.536093e-39
0.43489295 0.22509773 0.69526845 5.8130372e-39
0.42888913 0.23655775 0.69450945 6.181454e-39
0.43070117 0.23188981 0.69629264 6.0899787e-39
0.42947102 0.24116063 0.69434857 6.2732839e-39
0.43210086 0.24573815 0.69584024 5.9026895e-39
0.43771783 0.25236049 0.69701558 5.9938005e-39
0.44203442 0.25465992 0.69802588 7.5604032e-39
0.52662003 -0.33022279 0.7077176 3.7804188e-39
0.52301937 -0.32458779 0.70550656 2.4907982e-39
0.53474963 -0.32566869 0.7074526 5.8098283e-39
0.52275962 -0.31517297 0.7053982 2.8599577e-39
0.52393496 -0.30506408 0.70493132 2.8599577e-39
0.52648509 -0.29506695 0.70498204 2.8603164e-39
0.52886754 -0.28597423 0.70466602 7.561883e-39
0.53030723 -0.28123528 0.70658213 1.069758e-38
0.53153914 -0.27518082 0.70500726 1.106528e-38
0.53320116 -0.26510802 0.70491064 1.1157116e-38
0.53463167 -0.25510213 0.70479542 1.1341146e-38
0.53601426 -0.24494384 0.70517468 1.1341146e-38
0.53708488 -0.23521864 0.70479321 1.1617011e-38
0.53828555 -0.22510538 0.7050131 1.1617011e-38
0.53935546 -0.21572065 0.7043466 7.4689699e-39
0.54025817 -0.21189815 0.70818776 2.8603164e-39
0.53989786 -0.20937313 0.70113468 7.0079973e-39
0.54084897 -0.20479107 0.70504373 3.1365404e-39
0.54202068 -0.19496901 0.70500237 2.8599577e-39
0.5435797 -0.18480721 0.70514607 2.8599577e-39
0.5455845 -0.17490964 0.70503181 2.8599577e-39
0.54765028 -0.16515426 0.70497376 2.9521519e-39
0.55039942 -0.16094258 0.70730925 2.8599577e-39
0.54437488 -0.15953334 0.70038807 3.0590906e-39
0.55491775 -0.15730953 0.70559353 3.1369005e-39
0.56032956 -0.15484935 0.70906484 3.0443545e-39
0.53492278 -0.080988154 0.70180172 1.7424973e-38
0.52620703 -0.074344978 0.70269698 1.5304475e-38
0.53445017 -0.074911825 0.70568329 1.7148024e-38
0.54297829 -0.072911441 0.70603812 1.7977425e-38
0.5506773 -0.072064802 0.70140797 1.4381795e-38
0.51752549 -0.06358549 0.70223725 1.1708845e-38
0.52453071 -0.065345176 0.70528239 1.4566548e-38
0.53514719 -0.064901814 0.70662457 1.9176687e-38
0.54414195 -0.064388096 0.70693386 1.9268882e-38
0.55423748 -0.064270571 0.70378029 1.7055106e-38
0.56153584 -0.061480232 0.7026577 1.4842775e-38
0.50675821 -0.053094022 0.70321727 1.281519e-38
0.51421177 -0.055386029 0.70560831 1.3552758e-38
0.52503139 -0.054827891 0.70640445 1.5212279e-38
0.53542441 -0.054931525 0.7059685 1.7609364e-38
0.54528505 -0.055277072 0.70645893 1.9084132e-38
0.55477476 -0.054236278 0.70688897 1.9545111e-38
0.56404209 -0.054183625 0.7057339 1.5950601e-38
0.57244384 -0.052350771 0.70285785 7.1927992e-39
0.49935076 -0.046388164 0.70120984 1.2170543e-38
0.50455266 -0.04498617 0.70502234 1.382862e-38
0.51483804 -0.044639565 0.70657229 1.6595213e-38
0.5248211 -0.04525131 0.70576066 1.5027888e-38
0.53557223 -0.04470576 0.70584387 1.5027888e-38
0.5452739 -0.045083266 0.70580071 1.724022e-38
0.55465806 -0.044912107 0.70627558 1.9176329e-38
0.56454527 -0.045055736 0.70667517 1.6964746e-38
0.57396758 -0.043905761 0.7059415 5.2578274e-39
0.58232254 -0.042584624 0.70328748 6.4559726e-39
0.50615132 -0.036016919 0.70382917 1.2907025e-38
0.51526284 -0.034617424 0.70531619 1.8807903e-38
0.52488536 -0.034845982 0.70507073 1.5949844e-38
0.53486061 -0.035101131 0.70535946 1.5027888e-38
0.54532903 -0.035065465 0.70573056 1.5027888e-38
0.55495328 -0.03502515 0.70614392 1.4843882e-38
0.56441593 -0.035053998 0.706361 6.4563552e-39
0.57468992 -0.034904625 0.70629877 4.8894064e-39
0.58401144 -0.034647781 0.70591253 5.0737921e-39
0.59196222 -0.031793211 0.70460987 8.02292e-39
0.50857961 -0.028862225 0.70110267 1.3552393e-38
0.51513773 -0.025781628 0.7027759 1.5120079e-38
0.52461749 -0.02501487 0.70418769 1.843876e-38
0.53502071 -0.024966905 0.70542675 1.5673257e-38
0.54502439 -0.025014045 0.70611793 1.4014111e-38
0.55442148 -0.024949005 0.7063542 6.6403765e-39
0.56454366 -0.025013754 0.70634943 4.8894064e-39
0.57478678 -0.025244242 0.70634049 4.8894064e-39
0.58486855 -0.025026107 0.70641804 4.889405e-39
0.59394717 -0.024025504 0.70618093 8.6683006e-39
0.60201705 -0.02288612 0.70358074 1.6317902e-38
0.51883417 -0.019236058 0.70071024 1.3552395e-38
0.52587193 -0.016252084 0.70227337 1.5027886e-38
0.53491926 -0.014909951 0.70447773 1.6226809e-38
0.54486477 -0.014865911 0.70608211 6.0875642e-39
0.55448627 -0.015284801 0.70650375 4.8890463e-39
0.56446999 -0.014822547 0.70643967 4.8894064e-39
0.57448077 -0.014996555 0.70640606 4.8894064e-39
0.58482361 -0.014661031 0.70647103 4.889405e-39
0.59483564 -0.015237354 0.70644313 1.0327452e-38
0.60480887 -0.014506522 0.70495749 1.9452914e-38
0.6142323 -0.013019615 0.70303339 1.871535e-38
0.62041169 -0.010105595 0.70236582 1.7793755e-38
0.53620464 -0.0063868379 0.70208687 5.3496138e-39
0.54476643 -0.0047928439 0.70463657 4.2436586e-39
0.55443347 -0.0051843845 0.70656955 4.797208e-39
0.56442833 -0.0046355175 0.70649117 4.8894078e-39
0.57476789 -0.0048752232 0.70620501 4.9812433e-39
0.58514476 -0.0051122513 0.7060917 8.2995139e-39
0.59558618 -0.0053480188 0.70611632 1.8623516e-38
0.60572404 -0.005592505 0.70547003 1.9913882e-38
0.61497694 -0.0044739628 0.70559007 1.9360715e-38
0.62272525 -0.0039666998 0.70514476 1.7977786e-38
0.53983003 0.0019143196 0.7077747 1.2908143e-38
0.54664779 0.003113518 0.70231855 3.6901065e-39
0.55465841 0.0051613334 0.70475477 4.0588988e-39
0.56467944 0.0046358528 0.70647061 5.0737921e-39
0.57494414 0.0045928257 0.70592833 7.5623188e-39
0.58556861 0.004626675 0.70574963 1.4935698e-38
0.59486461 0.0050594243 0.70572209 1.5304475e-38
0.60423589 0.0049851136 0.70594698 1.7885949e-38
0.61432976 0.005600763 0.70703709 1.8992294e-38
0.62156922 0.0040527354 0.70703262 1.8715344e-38
0.55706793 0.011635294 0.70179302 4.6116859e-39
0.56499738 0.015108765 0.70417494 1.0234479e-38
0.57545048 0.014878248 0.70538306 1.6042407e-38
0.58545148 0.014818248 0.70543128 1.5120083e-38
0.59497994 0.01572524 0.70534754 1.5120083e-38
0.60447162 0.015516506 0.70567739 1.5027888e-38
0.61418599 0.014922385 0.70588064 1.6134235e-38
0.62117267 0.014599587 0.70446348 1.5304475e-38
0.56821126 0.022725966 0.70204479 1.1155671e-38
0.57483619 0.025172854 0.70319885 1.5488506e-38
0.5848496 0.025117639 0.70422238 1.539667e-38
0.59463191 0.025301123 0.70494312 1.5120083e-38
0.6044367 0.024703028 0.70469475 1.5304475e-38
0.6128059 0.023907015 0.70232242 1.4659105e-38
0.57810473 0.031746536 0.70156378 1.2907387e-38
0.58560711 0.034670386 0.70276618 1.6226429e-38
0.59439439 0.034485273 0.70459485 1.6687409e-38
0.60395783 0.032012101 0.70299053 1.5304473e-38
0.5884186 0.040464044 0.70097911 1.0971279e-38
0.59173059 0.041304547 0.70200938 1.5303749e-38
0.45729989 0.19806828 0.70380324 4.5096321e-39
0.46438774 0.1974235 0.70459151 6.4453788e-39
0.47185948 0.19862585 0.70310169 8.3847408e-39
0.44849935 0.20783733 0.70345229 4.4206917e-39
0.45342109 0.20380105 0.7066316 4.6933003e-39
0.46531132 0.20112389 0.70839298 6.1648164e-39
0.47444564 0.20489952 0.70743006 6.8109089e-39
0.43976858 0.21926588 0.70121789 5.0696778e-39
0.44498193 0.21500295 0.70578641 4.3256038e-39
0.45026761 0.21041435 0.7092846 4.8766083e-39
0.47730994 0.21818168 0.70889586 6.9945771e-39
0.43675476 0.22564413 0.70485848 4.3259667e-39
0.44179985 0.22203463 0.70828676 4.7844141e-39
0.47336426 0.22405033 0.70916921 7.3651673e-39
0.42976403 0.23739827 0.70112777 3.9571842e-39
0.43306515 0.23464434 0.70605665 4.2330452e-39
0.46712738 0.2344811 0.70911908 5.7121746e-39
0.43433633 0.24476033 0.70604324 4.3259639e-39
0.44058925 0.24925746 0.70924503 4.2326837e-39
0.45856613 0.24939074 0.7066595 7.2744164e-39
0.46224728 0.24470502 0.70780402 7.8279531e-39
0.43833661 0.25120685 0.70180339 4.8838418e-39
0.44485229 0.25295129 0.70575243 4.6025522e-39
0.45277935 0.2521525 0.70794547 7.1825837e-39
0.52892572 -0.33119366 0.71207118 2.6752035e-39
0.5332275 -0.33358186 0.71608663 3.7811881e-39
0.52469605 -0.32418144 0.71422166 2.1216528e-39
0.5306294 -0.32954305 0.71959972 2.8599591e-39
0.5242154 -0.31467971 0.71546412 2.7799786e-39
0.52536052 -0.304995 0.71468353 2.7886022e-39
0.52763855 -0.2949746 0.71508616 2.789321e-39
0.52939886 -0.28770271 0.71407074 2.7896798e-39
0.53075206 -0.28311601 0.71543539 2.8822341e-39
0.53241777 -0.27522433 0.71508807 2.8822355e-39
0.53436226 -0.26513457 0.7150268 2.8822355e-39
0.53587461 -0.25474793 0.71501553 2.974071e-39
0.53708225 -0.24508603 0.71498764 2.974071e-39
0.53828186 -0.23515697 0.71481854 3.433966e-39
0.5393883 -0.22552019 0.71443909 3.5258015e-39
0.54020792 -0.22197612 0.71813238 2.7904e-39
0.53987169 -0.21808939 0.71119487 4.4384041e-39
0.54091394 -0.21447624 0.71570379 2.789321e-39
0.54188472 -0.20510887 0.71490204 2.786447e-39
0.5430494 -0.19482686 0.71536863 2.7868057e-39
0.5441913 -0.18546407 0.71542066 2.7868057e-39
0.54722387 -0.17506741 0.71454406 2.781775e-39
0.54935575 -0.16758397 0.71386337 2.7760269e-39
0.55142164 -0.16316637 0.7143777 2.775308e-39
0.556238 -0.15833172 0.7136125 3.1376334e-39
0.56378251 -0.15680386 0.71362317 4.2432621e-39
0.53838074 -0.073538423 0.71161187 1.1708845e-38
0.53561521 -0.052030593 0.71521032 1.5396306e-38
0.53457808 -0.044858616 0.71108049 1.5765453e-38
0.56890857 -0.041133165 0.71278548 1.4842775e-38
0.45723379 0.20685278 0.71157593 5.520533e-39
0.46497074 0.20605534 0.71207595 6.2570106e-39
0.47198328 0.20848694 0.71168071 6.3488461e-39
0.44858998 0.21728125 0.71109921 5.1524736e-39
0.45472759 0.21511078 0.71306086 5.8885925e-39
0.46477532 0.2146465 0.71392095 6.4410404e-39
0.47328669 0.21442245 0.71182698 6.6247114e-39
0.43924454 0.22871153 0.7105248 5.1524736e-39
0.44547585 0.22547099 0.71205455 5.7045627e-39
0.45477355 0.22477759 0.71442151 6.1648164e-39
0.46423844 0.22490036 0.71333581 6.6247114e-39
0.47136167 0.22251375 0.71093458 6.6247114e-39
0.43782574 0.2359488 0.71162689 5.1524736e-39
0.44464001 0.23465651 0.71360588 6.0729809e-39
0.45450681 0.23506542 0.71408021 6.4410404e-39
0.46330956 0.23396602 0.71188724 6.7176273e-39
0.43798342 0.24258512 0.71129662 5.0606381e-39
0.44458571 0.24485134 0.7128365 5.7049215e-39
0.45363921 0.24382429 0.7130636 6.4410404e-39
0.46050435 0.24178047 0.71125555 6.5328759e-39
0.44762731 0.25045663 0.71084976 5.3368634e-39
0.53572786 -0.33434081 0.72155905 3.228352e-39
0.52565008 -0.32300788 0.725492 1.6610235e-39
0.52531302 -0.31542945 0.725205 2.7763828e-39
0.5267359 -0.30501544 0.72496831 2.7904e-39
0.5287506 -0.29560968 0.72471195 2.7904e-39
0.53020847 -0.29163077 0.72828847 2.7904e-39
0.5298757 -0.28923467 0.72136778 2.7904e-39
0.53146642 -0.28468788 0.725191 2.7904e-39
0.53363055 -0.27478147 0.72505182 2.8811593e-39
0.53537685 -0.26476926 0.72522163 2.7904e-39
0.53677714 -0.2549569 0.72502023 2.7904e-39
0.538032 -0.24508394 0.72478294 2.7904e-39
0.52959681 -0.23421741 0.72688752 7.7552565e-39
0.53928035 -0.23542933 0.72464806 2.7904e-39
0.54119486 -0.23210546 0.72802764 2.7900399e-39
0.53971052 -0.2283861 0.72094244 2.7904e-39
0.54086775 -0.22443862 0.72557539 2.7904e-39
0.54200953 -0.21498577 0.72475284 2.7904e-39
0.54332298 -0.20501788 0.7251519 2.7904e-39
0.54431313 -0.19512336 0.7248646 2.7904e-39
0.54528928 -0.1850661 0.72531939 2.7904e-39
0.54665673 -0.17466541 0.72510839 2.7907602e-39
0.54853308 -0.16702856 0.7235747 2.8836775e-39
0.55271131 -0.16392305 0.72579783 2.9769563e-39
0.55737489 -0.15870243 0.72383183 2.9647356e-39
0.56228232 -0.15620239 0.7274909 3.13979e-39
0.53354967 -0.33253774 0.73734713 3.7815468e-39
0.52782255 -0.32429045 0.73472059 1.752859e-39
0.52741826 -0.31498453 0.73501754 2.775308e-39
0.52811712 -0.304952 0.73496151 2.7821352e-39
0.52948666 -0.29725325 0.73485273 2.7824939e-39
0.53053218 -0.29254559 0.73576778 2.7796198e-39
0.53227931 -0.28509945 0.73510623 2.7814163e-39
0.53414387 -0.27514237 0.73483562 2.781775e-39
0.53566253 -0.26515725 0.73532283 2.7806974e-39
0.53718495 -0.25487858 0.73495811 2.7821352e-39
0.53888625 -0.24454162 0.7347787 2.782854e-39
0.53986973 -0.23860995 0.73462433 2.7842904e-39
0.5406965 -0.23354021 0.7352854 2.781775e-39
0.54176956 -0.22513135 0.73485982 2.7839316e-39
0.54303688 -0.21486254 0.73491502 2.7842904e-39
0.54427594 -0.20474248 0.73526615 2.7835729e-39
0.54532522 -0.19531357 0.7349 2.7850092e-39
0.54645705 -0.18482904 0.73544401 2.7850092e-39
0.54790443 -0.17552142 0.73457593 2.7878861e-39
0.55106097 -0.17196304 0.73837686 3.1505674e-39
0.54946685 -0.16950068 0.73312664 2.7914804e-39
0.55373168 -0.16481461 0.73650271 3.0666352e-39
0.55718076 -0.15872157 0.7352913 3.1534442e-39
0.56476796 -0.1570235 0.73337275 3.3241812e-39
0.57121599 -0.15663658 0.73361129 5.1644743e-39
0.53504491 -0.33331811 0.74867564 4.1503224e-39
0.52860326 -0.32367983 0.74528635 1.8450575e-39
0.53153741 -0.32926577 0.74471951 2.6755608e-39
0.56759524 -0.32720116 0.74900377 8.1143771e-39
0.52917933 -0.31508407 0.74493575 2.7677621e-39
0.53010505 -0.31071138 0.74855757 2.8599577e-39
0.57414043 -0.31148857 0.74959457 8.2069287e-39
0.52954423 -0.30598342 0.74230278 2.8599577e-39
0.53049457 -0.30401224 0.74715501 2.8599577e-39
0.57684374 -0.30329382 0.74884325 8.1147358e-39
0.53137195 -0.29491249 0.74493045 2.8599577e-39
0.53311551 -0.28517303 0.74473536 2.8599577e-39
0.53471994 -0.27504948 0.74507546 2.8599577e-39
0.56470096 -0.27122894 0.74986315 5.3503859e-39
0.53592855 -0.26501533 0.7452808 2.8599577e-39
0.58277863 -0.26183376 0.74908692 7.0091422e-39
0.53734559 -0.25512317 0.74518609 2.8599577e-39
0.5820176 -0.25838047 0.74993265 5.62697e-39
0.53899109 -0.24542704 0.7448535 2.8599577e-39
0.54020548 -0.24103469 0.74894917 2.8599577e-39
0.53986186 -0.23940912 0.74243236 2.8599577e-39
0.54090673 -0.23490095 0.74541008 2.8599577e-39
0.54264528 -0.22499278 0.74523062 2.8599577e-39
0.58840948 -0.22830465 0.74973249 7.6541304e-39
0.54408485 -0.21526822 0.74525154 2.8599577e-39
0.59106058 -0.21660632 0.74911302 7.6541304e-39
0.54552966 -0.20529573 0.74530649 2.8599577e-39
0.59237194 -0.20198543 0.74996817 6.9173053e-39
0.54678041 -0.19479872 0.74507082 2.8599577e-39
0.54815143 -0.18526092 0.74501848 2.8599577e-39
0.55034024 -0.18276921 0.74952042 2.9521589e-39
0.54919553 -0.17805168 0.74353987 2.8599591e-39
0.55157685 -0.17404142 0.74599189 2.8599605e-39
0.55610758 -0.16528627 0.74450433 2.8613968e-39
0.56091154 -0.16100031 0.74404639 2.8599577e-39
0.5598731 -0.15958697 0.74985522 2.8599577e-39
0.56350207 -0.1570109 0.74513173 3.138704e-39
0.58063477 -0.15181452 0.74959743 1.4843176e-38
0.53688651 -0.33303222 0.75539792 2.3986054e-39
0.54353517 -0.33323911 0.75867045 3.9659283e-39
0.55600941 -0.33092159 0.75584072 5.7187761e-39
0.56345105 -0.33236325 0.7503112 7.8377846e-39
0.52984279 -0.3223522 0.75117564 1.5684664e-39
0.53465122 -0.32474214 0.75503778 2.6755664e-39
0.5446915 -0.32517582 0.75844479 3.7819224e-39
0.5550372 -0.32454666 0.75642586 4.9816062e-39
0.56216079 -0.32394052 0.75407398 5.0738061e-39
0.52907592 -0.31919533 0.75252819 2.7745878e-39
0.5338518 -0.31468228 0.75549024 3.5979081e-39
0.54461879 -0.31480694 0.7589429 4.7972094e-39
0.55506927 -0.3152388 0.75785303 5.0738019e-39
0.56382084 -0.31468925 0.75539988 5.1660017e-39
0.57118243 -0.31490576 0.75064766 6.6403681e-39
0.5341047 -0.30515522 0.75605756 3.3213142e-39
0.5441168 -0.3081769 0.75973839 4.7972094e-39
0.55532056 -0.30579147 0.75919992 5.0738019e-39
0.56453508 -0.30460471 0.75670373 5.1660003e-39
0.57219416 -0.30392942 0.75293136 6.6403667e-39
0.53475463 -0.29510918 0.75557566 3.1365544e-39
0.55670315 -0.29518959 0.75927597 5.1660003e-39
0.56476027 -0.29492262 0.75683528 5.1660003e-39
0.5723291 -0.29460722 0.75391483 5.5344143e-39
0.5365271 -0.28508407 0.7551865 3.3209484e-39
0.54094756 -0.28251299 0.7591725 3.5053453e-39
0.55565631 -0.28457206 0.75926483 5.0738033e-39
0.56483769 -0.28502822 0.75670433 5.1660003e-39
0.57316577 -0.28444955 0.75392538 6.1794053e-39
0.53749537 -0.2746374 0.75430137 3.2287528e-39
0.54251844 -0.27383816 0.75900441 3.6901051e-39
0.55476302 -0.27497196 0.75916564 5.0738019e-39
0.56476998 -0.27505228 0.75673974 5.1660003e-39
0.57384032 -0.27450973 0.75384778 5.5347716e-39
0.53793013 -0.26487464 0.75325334 3.0443545e-39
0.54211223 -0.26432997 0.75843275 3.6901037e-39
0.55492586 -0.26516348 0.75902343 5.0738019e-39
0.56459183 -0.26500872 0.75689608 5.0738047e-39
0.57466459 -0.26489705 0.75357705 5.1660017e-39
0.53877234 -0.25537252 0.75264645 2.9521547e-39
0.54312521 -0.2543889 0.7580741 3.7823021e-39
0.55598783 -0.25541428 0.75900286 5.0738047e-39
0.56476986 -0.25522184 0.75686812 5.0738047e-39
0.5741117 -0.25470296 0.7543214 5.1660003e-39
0.58149248 -0.25377017 0.75108862 5.9953798e-39
0.53964156 -0.24689999 0.75142753 2.8599577e-39
0.54341936 -0.24451882 0.7569164 3.5057082e-39
0.55707026 -0.24513111 0.75937682 5.1660003e-39
0.56435281 -0.24549554 0.75744152 5.1659989e-39
0.57450527 -0.24521765 0.7548058 5.1659989e-39
0.58182794 -0.24474268 0.75242621 5.6266057e-39
0.54473394 -0.23482384 0.75629902 3.4135098e-39
0.55616254 -0.23571493 0.75982076 4.9816034e-39
0.56544679 -0.23516907 0.7582764 5.1660003e-39
0.57532716 -0.234953 0.75556171 5.1660003e-39
0.58226722 -0.23514891 0.75330836 5.8113487e-39
0.54631245 -0.22494677 0.75554854 3.3209498e-39
0.55293506 -0.22368111 0.75950998 4.612451e-39
0.56624949 -0.22593105 0.75913876 5.1660003e-39
0.57459033 -0.22503529 0.75697708 5.1660003e-39
0.58361185 -0.22371975 0.75364685 5.1660017e-39
0.5473516 -0.21484293 0.75417578 3.0443559e-39
0.55237192 -0.21575281 0.7592206 4.1514588e-39
0.56875533 -0.21567449 0.75962234 1.0973183e-38
0.57496279 -0.21483664 0.75801533 1.1434157e-38
0.58307612 -0.21459769 0.75503397 7.1939216e-39
0.54837978 -0.20494758 0.75383115 2.9521575e-39
0.55167818 -0.20367216 0.75838184 3.3213128e-39
0.57521379 -0.20513651 0.75854403 1.3358619e-38
0.58390015 -0.2050958 0.7557382 1.3182225e-38
0.54892337 -0.19537704 0.75247896 2.8599577e-39
0.55176979 -0.19452113 0.75755173 3.1369145e-39
0.56494439 -0.19139729 0.75143856 3.5979067e-39
0.57596409 -0.19543125 0.75851476 1.1049398e-38
0.58486241 -0.19472796 0.75578046 8.572484e-39
0.5900293 -0.19953287 0.75252444 6.6403709e-39
0.54956561 -0.1884433 0.75043273 2.8599577e-39
0.55278468 -0.18476473 0.75564772 2.952519e-39
0.57634771 -0.18463999 0.75829464 1.1327788e-38
0.58561677 -0.1849298 0.7550807 1.5851155e-38
0.54619676 -0.1725107 0.75194663 4.612088e-39
0.55515975 -0.17465886 0.75521642 3.0443545e-39
0.56926703 -0.17169429 0.75961179 1.5489632e-38
0.57449257 -0.17506887 0.75829899 1.373283e-38
0.58432269 -0.17523697 0.75485253 1.4745173e-38
0.5900631 -0.17484389 0.7524876 1.7517175e-38
0.55695528 -0.16562052 0.75406623 3.2287514e-39
0.56495994 -0.16446613 0.75725406 4.3354857e-39
0.57423347 -0.16467479 0.75737178 5.3492565e-39
0.58216596 -0.16589552 0.75546604 6.1793955e-39
0.5653519 -0.15832089 0.75182343 3.6901065e-39
0.57411379 -0.15848584 0.75419164 4.1510805e-39
0.54844844 -0.33291921 0.76025856 4.8875132e-39
0.55042899 -0.33191746 0.76077735 4.6109278e-39
0.54899693 -0.32867825 0.76018441 8.2990991e-39
0.55069309 -0.32986975 0.76047194 7.5619166e-39
0.54979217 -0.31698939 0.76195437 4.4280527e-39
0.56615257 -0.31648567 0.76000816 3.9667018e-39
0.5394218 -0.30220208 0.76012826 4.7050109e-39
0.54522759 -0.30361214 0.76048356 4.797208e-39
0.55142075 -0.30220309 0.76038259 5.0738019e-39
0.56714106 -0.3050853 0.76425564 4.7972066e-39
0.53931445 -0.29553556 0.76025516 4.5202511e-39
0.54437149 -0.29488418 0.76100886 4.7050109e-39
0.55156916 -0.29484919 0.76067364 5.0738047e-39
0.54496819 -0.28518182 0.7608 4.704648e-39
0.551328 -0.28675401 0.76030183 5.0738019e-39
0.54576015 -0.27539426 0.76044184 4.6128111e-39
0.54694265 -0.26536047 0.76044726 4.704648e-39
0.5510565 -0.26042807 0.76005161 5.1660003e-39
0.54825556 -0.25609273 0.76036996 4.4280541e-39
0.55202377 -0.25387964 0.76140189 4.9812447e-39
0.54909992 -0.24660912 0.76006484 4.612451e-39
0.55204266 -0.24476697 0.76041621 4.7968478e-39
0.55436826 -0.23486105 0.76034307 4.797208e-39
0.55651683 -0.22587562 0.76019406 4.797208e-39
0.56164014 -0.22439148 0.76032257 4.8894078e-39
0.547351 -0.21413118 0.76602739 4.797208e-39
0.5567826 -0.21356545 0.76046503 4.704648e-39
0.56336498 -0.21495643 0.76057577 6.9173305e-39
0.55619121 -0.20506084 0.76119512 4.5202497e-39
0.56521744 -0.20515373 0.76074165 1.5120487e-38
0.55649382 -0.19498275 0.76181632 4.2432957e-39
0.56477493 -0.19519548 0.76132649 1.4198542e-38
0.57085729 -0.19376987 0.76008701 1.4100154e-38
0.55728215 -0.18558903 0.76151299 3.9670591e-39
0.56436986 -0.18494985 0.76169914 1.5397071e-38
0.57072204 -0.18617456 0.76023775 1.5670007e-38
0.55884296 -0.17600158 0.76098907 3.5979067e-39
0.56456488 -0.17512251 0.7609157 1.4290736e-38
0.56378281 -0.16917151 0.76014858 4.6124482e-39
0.54248595 -0.28160214 0.77059555 5.1659989e-39
