# .PCD v0.7 - Point Cloud Data file format
VERSION 0.7
FIELDS x y z rgb
SIZE 4 4 4 4
TYPE F F F F
COUNT 1 1 1 1
WIDTH 1033
HEIGHT 1
VIEWPOINT 0 0 0 1 0 0 0
POINTS 1033
DATA ascii
0.50540799 0.034863148 0.6099996 1.0786889e-38
0.51470536 0.034962166 0.60999978 1.0786889e-38
0.5251019 0.035072897 0.6099999 1.0786889e-38
0.53567237 0.035185479 0.60999984 1.0786889e-38
0.5453074 0.035431754 0.60999984 1.0786889e-38
0.77557766 0.03042179 0.60725278 1.0879084e-38
0.32999843 0.04479875 0.60405123 0
0.3350299 0.044787578 0.60999858 1.0418106e-38
0.34533948 0.045014042 0.60999864 1.0786889e-38
0.35515061 0.045229565 0.6099987 1.0786889e-38
0.36514723 0.045449156 0.6099987 1.0786889e-38
0.37524089 0.04527279 0.60999876 1.0786889e-38
0.38496765 0.044436999 0.60999876 1.0786889e-38
0.39477897 0.044639457 0.60999876 1.0786889e-38
0.4047645 0.044845514 0.60999876 1.0786889e-38
0.41493827 0.045055449 0.60999882 1.0786889e-38
0.42529574 0.045269184 0.60999882 1.0786889e-38
0.43484184 0.045115992 0.60999888 1.0786889e-38
0.44493526 0.044910766 0.60999924 1.0786889e-38
0.45501381 0.045112032 0.60999924 1.0786889e-38
0.465271 0.045316864 0.6099993 1.0786889e-38
0.47499138 0.04501158 0.60999942 1.0786889e-38
0.48455569 0.044911914 0.6099993 1.0786889e-38
0.49523494 0.045000944 0.6099993 1.0786889e-38
0.50540787 0.044510491 0.60999972 1.0786889e-38
0.5147053 0.044683792 0.60999978 1.0786889e-38
0.52497524 0.044849388 0.60980099 1.0786889e-38
0.53567237 0.045074578 0.60999984 1.0786889e-38
0.54544348 0.0452567 0.60999984 1.0786889e-38
0.55336595 0.042896755 0.6099999 1.0786889e-38
0.32999846 0.054946609 0.60419613 0
0.33484843 0.054816667 0.60999846 1.0418106e-38
0.34533948 0.054777574 0.60999864 1.0786889e-38
0.35515064 0.055084527 0.60999864 1.0786889e-38
0.36514717 0.055397283 0.6099987 1.0786889e-38
0.37533474 0.054996934 0.60999876 1.0786889e-38
0.38496757 0.054569833 0.60999876 1.0786889e-38
0.394779 0.05486374 0.60999876 1.0786889e-38
0.40476453 0.055162851 0.60999876 1.0786889e-38
0.41477001 0.055271979 0.60999882 1.0786889e-38
0.42529565 0.055027228 0.60999888 1.0786889e-38
0.43521944 0.054909341 0.60999894 1.0786889e-38
0.44493538 0.054838765 0.60999918 1.0786889e-38
0.4550139 0.055127244 0.60999918 1.0786889e-38
0.46508971 0.05492403 0.6099993 1.0786889e-38
0.47483215 0.054910917 0.60999948 1.0786889e-38
0.48455599 0.05518277 0.60999942 1.0786889e-38
0.49546871 0.055336457 0.60999966 1.0786889e-38
0.50540793 0.054961793 0.60999984 1.0786889e-38
0.5145846 0.05458457 0.60999984 1.0786889e-38
0.52510196 0.054682236 0.6099999 1.0786889e-38
0.53567237 0.054963682 0.60999984 1.0786889e-38
0.54544342 0.055223845 0.60999984 1.0786889e-38
0.32999846 0.065278828 0.6038996 0
0.33521137 0.065141909 0.60999846 1.0418106e-38
0.34520349 0.064753659 0.60999864 1.0786889e-38
0.35515058 0.064939484 0.6099987 1.0786889e-38
0.36514726 0.065345407 0.6099987 1.0786889e-38
0.37533459 0.064937539 0.60999876 1.0786889e-38
0.38507423 0.064691834 0.60985184 1.0786889e-38
0.39477909 0.065087996 0.60999876 1.0786889e-38
0.40460938 0.065252364 0.60999876 1.0786889e-38
0.41511786 0.064905457 0.60999882 1.0786889e-38
0.42529568 0.064785279 0.60999882 1.0786889e-38
0.43503061 0.065154642 0.60999894 1.0786889e-38
0.44482303 0.06490653 0.60999924 1.0786889e-38
0.45501369 0.065142445 0.60999924 1.0786889e-38
0.46544337 0.064986371 0.6099993 1.0786889e-38
0.47483209 0.065097615 0.60999942 1.0786889e-38
0.48455599 0.064663559 0.60999942 1.0786889e-38
0.49534586 0.065051407 0.60999942 1.0786889e-38
0.50540775 0.065413095 0.60999972 1.0786889e-38
0.51481539 0.065083563 0.6099999 1.0786889e-38
0.52510208 0.064486906 0.6099999 1.0786889e-38
0.53567237 0.064852789 0.60999984 1.0786889e-38
0.54544342 0.065191008 0.60999984 1.0786889e-38
0.55336595 0.062957622 0.6099999 1.0786889e-38
0.64560997 0.066458985 0.60342574 1.0786889e-38
0.67800689 0.065885857 0.60334474 1.0786889e-38
0.78821707 0.062746897 0.60482013 1.0879084e-38
0.32999843 0.075197078 0.60405117 0
0.33502987 0.075171001 0.60999858 1.0418106e-38
0.34533912 0.075000778 0.60999864 1.0786889e-38
0.35515052 0.074794441 0.6099987 1.0786889e-38
0.36514717 0.075293534 0.6099987 1.0786889e-38
0.37536529 0.074875467 0.6099987 1.0786889e-38
0.38496765 0.074835509 0.60999876 1.0786889e-38
0.39477906 0.075312272 0.60999876 1.0786889e-38
0.40492791 0.074796095 0.60999876 1.0786889e-38
0.41493818 0.074804418 0.60999882 1.0786889e-38
0.42519745 0.07517904 0.60999882 1.0786889e-38
0.43503061 0.074996926 0.60999894 1.0786889e-38
0.44503662 0.074810758 0.60999918 1.0786889e-38
0.45501387 0.075157672 0.60999918 1.0786889e-38
0.46527112 0.074851543 0.6099993 1.0786889e-38
0.47483215 0.075284332 0.60999948 1.0786889e-38
0.48455578 0.074934401 0.60999924 1.0786889e-38
0.49522343 0.074763261 0.60999936 1.0786889e-38
0.50540775 0.075060435 0.6099996 1.0786889e-38
0.51470536 0.075468905 0.60999978 1.0786889e-38
0.52488208 0.07472112 0.60999995 1.0786889e-38
0.53567237 0.074741878 0.60999984 1.0786889e-38
0.54544348 0.075158156 0.60999984 1.0786889e-38
0.55137432 0.071238101 0.6099999 1.0786889e-38
0.76078331 0.072172992 0.60478199 1.0786889e-38
0.77865887 0.075905718 0.60832417 1.0786889e-38
0.32999843 0.08486928 0.60405129 0
0.33502987 0.08483845 0.60999858 1.0418106e-38
0.3454757 0.085251711 0.60999864 1.0786889e-38
0.35515058 0.084649406 0.60999864 1.0786889e-38
0.36514723 0.085241631 0.6099987 1.0786889e-38
0.3753345 0.084818996 0.60999876 1.0786889e-38
0.38493127 0.085013352 0.60989499 1.0786889e-38
0.39458045 0.085238472 0.60999876 1.0786889e-38
0.4047645 0.08464089 0.60999876 1.0786889e-38
0.41491833 0.085132882 0.60984701 1.0786889e-38
0.42540464 0.084915541 0.60999888 1.0786889e-38
0.43503067 0.084839217 0.60999894 1.0786889e-38
0.44474319 0.085022576 0.60999918 1.0786889e-38
0.45501375 0.085172869 0.60999924 1.0786889e-38
0.46527109 0.084955528 0.60999918 1.0786889e-38
0.4747192 0.084857851 0.60999942 1.0786889e-38
0.48455587 0.085205257 0.60999942 1.0786889e-38
0.49534529 0.08498168 0.6099993 1.0786889e-38
0.50540787 0.084707804 0.60999972 1.0786889e-38
0.51470536 0.085190549 0.60999978 1.0786889e-38
0.52520216 0.08517503 0.60999995 1.0786889e-38
0.53567237 0.084630996 0.60999984 1.0786889e-38
0.54544342 0.08512532 0.60999984 1.0786889e-38
0.32999846 0.094782107 0.60420257 0
0.3348484 0.094860554 0.60999846 1.0418106e-38
0.34533948 0.095226482 0.60999864 1.0786889e-38
0.35501212 0.094714999 0.6099987 1.0786889e-38
0.36514726 0.09518975 0.6099987 1.0786889e-38
0.37533453 0.094862044 0.6099987 1.0786889e-38
0.38496763 0.095101155 0.60999876 1.0786889e-38
0.39481175 0.094922237 0.60999876 1.0786889e-38
0.40476453 0.094958238 0.60999876 1.0786889e-38
0.41472769 0.095217325 0.60999882 1.0786889e-38
0.42520252 0.09481661 0.609806 1.0786889e-38
0.43484178 0.095076211 0.60999888 1.0786889e-38
0.44512743 0.094914593 0.60999918 1.0786889e-38
0.45491022 0.095068365 0.60999918 1.0786889e-38
0.46527094 0.095059484 0.6099993 1.0786889e-38
0.47493502 0.095018394 0.60999936 1.0786889e-38
0.48443562 0.094827615 0.60999936 1.0786889e-38
0.4954685 0.095202968 0.60999942 1.0786889e-38
0.50523984 0.094855919 0.60999966 1.0786889e-38
0.5147053 0.094912149 0.60999978 1.0786889e-38
0.52523112 0.095387571 0.60999995 1.0786889e-38
0.53567243 0.094520099 0.60999984 1.0786889e-38
0.54544342 0.095092483 0.6099999 1.0786889e-38
0.55137432 0.099612601 0.6099999 1.0786889e-38
0.56472063 0.096770167 0.6007297 1.0786889e-38
0.32999846 0.10490321 0.60405147 0
0.33513343 0.10511672 0.60999846 1.0418106e-38
0.34533948 0.10499003 0.60999864 1.0786889e-38
0.35512263 0.10496303 0.6099987 1.0786889e-38
0.36514723 0.10513789 0.6099987 1.0786889e-38
0.37533456 0.1049051 0.6099987 1.0786889e-38
0.38496757 0.10523401 0.60999876 1.0786889e-38
0.39484242 0.1048324 0.60999876 1.0786889e-38
0.40466973 0.10516021 0.60999876 1.0786889e-38
0.415144 0.1048588 0.60999882 1.0786889e-38
0.42513475 0.10508096 0.60999882 1.0786889e-38
0.43521944 0.10488617 0.60999888 1.0786889e-38
0.44476861 0.10500054 0.60999918 1.0786889e-38
0.45517686 0.10503187 0.60976166 1.0786889e-38
0.46509829 0.10491731 0.6099993 1.0786889e-38
0.47483209 0.10506085 0.60999948 1.0786889e-38
0.48452517 0.10487457 0.60975969 1.0786889e-38
0.49534574 0.10491383 0.60999942 1.0786889e-38
0.50570041 0.10532527 0.60970247 1.0786889e-38
0.5147053 0.10463378 0.60999972 1.0786889e-38
0.52510196 0.10533968 0.6099999 1.0786889e-38
0.53554749 0.10458639 0.60999984 1.0786889e-38
0.54544348 0.10505962 0.60999984 1.0786889e-38
0.55137438 0.10545442 0.6099999 1.0786889e-38
0.63406968 0.10941514 0.6033923 1.0786889e-38
0.32999846 0.11502833 0.60389966 0
0.33511364 0.11513206 0.60999852 1.0418106e-38
0.34525636 0.11485732 0.60999864 1.0786889e-38
0.3551788 0.11511635 0.6099987 1.0786889e-38
0.36514717 0.11508601 0.6099987 1.0786889e-38
0.37539575 0.11484269 0.60999876 1.0786889e-38
0.38487628 0.11525273 0.60999876 1.0786889e-38
0.39487398 0.11484768 0.60999876 1.0786889e-38
0.40468711 0.11510613 0.60999876 1.0786889e-38
0.41493827 0.11496551 0.60999882 1.0786889e-38
0.42535797 0.11494587 0.60999882 1.0786889e-38
0.43493062 0.11500379 0.60999888 1.0786889e-38
0.44511077 0.11490248 0.60999918 1.0786889e-38
0.45484415 0.11497305 0.60999918 1.0786889e-38
0.46545276 0.11499475 0.60999924 1.0786889e-38
0.47467148 0.1150289 0.60994142 1.0786889e-38
0.48467651 0.1150872 0.60999936 1.0786889e-38
0.49513635 0.11489294 0.60999936 1.0786889e-38
0.50540787 0.11525773 0.6099996 1.0786889e-38
0.51452971 0.1146957 0.60999978 1.0786889e-38
0.52510202 0.11514436 0.6099999 1.0786889e-38
0.53560972 0.11479742 0.6099999 1.0786889e-38
0.54544348 0.11502676 0.60999984 1.0786889e-38
0.55137438 0.11546894 0.6099999 1.0786889e-38
0.6857695 0.11825537 0.60162735 1.0786889e-38
0.32999843 0.12493979 0.60405129 0
0.33494666 0.12497757 0.60999852 1.0233715e-38
0.3452577 0.12491813 0.60999864 1.0694693e-38
0.35520709 0.12517184 0.60999864 1.0694693e-38
0.36514726 0.12503412 0.6099987 1.0786889e-38
0.37533048 0.12488964 0.60980922 1.0786889e-38
0.38491303 0.12514032 0.60999876 1.0786889e-38
0.39477909 0.12497301 0.60999876 1.0786889e-38
0.40484229 0.12492132 0.60999876 1.0786889e-38
0.4147701 0.12517156 0.60999882 1.0786889e-38
0.42539364 0.12495313 0.60999882 1.0786889e-38
0.43503103 0.12496445 0.60999888 1.0786889e-38
0.44483361 0.12497711 0.60999918 1.0786889e-38
0.45519233 0.12496497 0.60999918 1.0786889e-38
0.46507195 0.12499428 0.60999924 1.0786889e-38
0.47499645 0.12510513 0.60999942 1.0786889e-38
0.48436856 0.12498254 0.60999936 1.0786889e-38
0.49544114 0.12510362 0.60999942 1.0786889e-38
0.50540793 0.1249051 0.6099996 1.0786889e-38
0.51476359 0.12504283 0.60999984 1.0786889e-38
0.52510202 0.12494902 0.6099999 1.0786889e-38
0.53567225 0.12500997 0.6099999 1.0786889e-38
0.54544353 0.12499393 0.60999984 1.0786889e-38
0.55137438 0.12548347 0.6099999 1.0786889e-38
0.56237423 0.12509947 0.60234189 1.0786889e-38
0.32999846 0.13484718 0.60420239 0
0.33493596 0.13490251 0.60999852 1.0325911e-38
0.34533939 0.13497646 0.60999864 1.0694693e-38
0.35515058 0.13513015 0.6099987 1.0694693e-38
0.36514723 0.13498226 0.6099987 1.0694693e-38
0.37533453 0.13482991 0.6099987 1.0786889e-38
0.38494956 0.135029 0.60999876 1.0786889e-38
0.39468363 0.13509576 0.60999876 1.0786889e-38
0.40485895 0.13487074 0.60999876 1.0786889e-38
0.41493863 0.1350445 0.60999882 1.0786889e-38
0.42513475 0.13510141 0.60999882 1.0786889e-38
0.43513018 0.13492799 0.60999888 1.0786889e-38
0.44493574 0.13502543 0.60999918 1.0786889e-38
0.45484424 0.13500051 0.60999918 1.0786889e-38
0.46547011 0.13507529 0.6099993 1.0786889e-38
0.47471917 0.13500299 0.60999942 1.0786889e-38
0.48462397 0.13510625 0.6099993 1.0786889e-38
0.49546862 0.13506946 0.60999936 1.0786889e-38
0.50523502 0.13488725 0.60999978 1.0786889e-38
0.5148263 0.13524668 0.60999978 1.0786889e-38
0.52510196 0.13475366 0.6099999 1.0786889e-38
0.53567237 0.13506387 0.60999978 1.0786889e-38
0.54529828 0.13497889 0.60958731 1.0786889e-38
0.55137438 0.13549799 0.6099999 1.0786889e-38
0.80523401 0.13373382 0.60531771 1.0786889e-38
0.32999846 0.14497371 0.60405153 0
0.3350642 0.1449993 0.60999846 1.0325911e-38
0.34542108 0.14503711 0.60999864 1.0694693e-38
0.35523564 0.14508389 0.6099987 1.0694693e-38
0.36514723 0.14493038 0.6099987 1.0694693e-38
0.37533453 0.14487298 0.6099987 1.0694693e-38
0.38498598 0.14491864 0.60999876 1.0694693e-38
0.39471567 0.14510898 0.60999876 1.0786889e-38
0.40476453 0.14507096 0.60999876 1.0786889e-38
0.41510615 0.14492212 0.60999882 1.0786889e-38
0.42535791 0.14497228 0.60999882 1.0786889e-38
0.43484184 0.14503646 0.60999888 1.0786889e-38
0.44493493 0.14495352 0.60999918 1.0786889e-38
0.45519233 0.14499849 0.60999918 1.0786889e-38
0.46508974 0.14506854 0.6099993 1.0786889e-38
0.47483185 0.14502321 0.60999942 1.0786889e-38
0.48467645 0.14511274 0.60999936 1.0786889e-38
0.49522337 0.14491394 0.60999936 1.0786889e-38
0.50540763 0.14500231 0.60999978 1.0786889e-38
0.51470536 0.14514051 0.60999972 1.0786889e-38
0.52490157 0.14483841 0.60999995 1.0786889e-38
0.53573471 0.14511363 0.6099999 1.0786889e-38
0.54544342 0.14492823 0.60999984 1.0786889e-38
0.55137438 0.14551252 0.6099999 1.0786889e-38
0.32999846 0.15510431 0.6038996 0
0.33508974 0.1550128 0.60999852 1.0325911e-38
0.3454231 0.15510106 0.60999864 1.0694693e-38
0.35515061 0.15504201 0.6099987 1.0694693e-38
0.36514723 0.15487853 0.6099987 1.0694693e-38
0.37533459 0.154916 0.6099987 1.0694693e-38
0.38496765 0.15493183 0.60999876 1.0694693e-38
0.39474702 0.15501873 0.60999876 1.0694693e-38
0.40460929 0.1551479 0.60999876 1.0786889e-38
0.41483924 0.15502149 0.60999882 1.0786889e-38
0.4253937 0.15498053 0.60999882 1.0786889e-38
0.43516988 0.15490369 0.60996932 1.0694693e-38
0.44487166 0.1550108 0.60999918 1.0786889e-38
0.45481819 0.15490049 0.60999918 1.0786889e-38
0.46533698 0.15503205 0.60999924 1.0786889e-38
0.47494543 0.15504616 0.60999942 1.0786889e-38
0.48436841 0.15500031 0.60999936 1.0786889e-38
0.49524996 0.15487669 0.60999936 1.0786889e-38
0.50558084 0.15512162 0.60999966 1.0786889e-38
0.51470536 0.15486215 0.60999972 1.0786889e-38
0.52507609 0.15504298 0.60999995 1.0786889e-38
0.53567243 0.1551722 0.60999984 1.0786889e-38
0.54544348 0.1548954 0.60999984 1.0786889e-38
0.55137438 0.15552704 0.6099999 1.0786889e-38
0.32999843 0.16501033 0.60405141 0
0.33497277 0.16502477 0.60999846 1.0325911e-38
0.34515381 0.16506745 0.60983318 1.0418106e-38
0.35506591 0.16499771 0.60999864 1.0694693e-38
0.36506093 0.1649283 0.6099987 1.0694693e-38
0.37533453 0.16495909 0.60999876 1.0694693e-38
0.38502231 0.16494265 0.60999876 1.0694693e-38
0.39481083 0.16492932 0.60999876 1.0694693e-38
0.4047648 0.16496727 0.60999876 1.0694693e-38
0.41481698 0.16510658 0.60995299 1.0694693e-38
0.42513472 0.16512188 0.60999882 1.0786889e-38
0.43493065 0.16496794 0.60999888 1.0786889e-38
0.44510165 0.16505954 0.60999918 1.0786889e-38
0.45520926 0.164903 0.60999918 1.0786889e-38
0.46527144 0.16500907 0.60999918 1.0786889e-38
0.47466794 0.16493608 0.60999942 1.0786889e-38
0.48455533 0.16500033 0.6099993 1.0786889e-38
0.49544114 0.16496921 0.60999936 1.0786889e-38
0.50540775 0.16510241 0.60999954 1.0786889e-38
0.51458466 0.16475199 0.60999978 1.0786889e-38
0.52510196 0.16498286 0.6099999 1.0786889e-38
0.53579772 0.16521983 0.6099999 1.0786889e-38
0.54544348 0.16486256 0.6099999 1.0786889e-38
0.55137438 0.16554157 0.6099999 1.0786889e-38
0.32999846 0.17491227 0.60420245 0
0.33499408 0.17503701 0.60999852 1.0325911e-38
0.3452839 0.17502724 0.60999864 1.0694693e-38
0.35509405 0.17505242 0.60999864 1.0694693e-38
0.36514717 0.17497694 0.6099987 1.0694693e-38
0.37533459 0.17500214 0.6099987 1.0694693e-38
0.38496765 0.17495675 0.60999876 1.0694693e-38
0.39484248 0.17494573 0.60999876 1.0694693e-38
0.40482131 0.17491527 0.60999876 1.0694693e-38
0.41497228 0.17509936 0.60999882 1.0694693e-38
0.42526641 0.1750154 0.60975146 1.0694693e-38
0.43496805 0.17506018 0.60999888 1.0786889e-38
0.44474319 0.17512316 0.60999918 1.0786889e-38
0.45481825 0.1749275 0.60999918 1.0786889e-38
0.46520424 0.17498456 0.60999924 1.0786889e-38
0.47499141 0.17510563 0.60999942 1.0786889e-38
0.48474357 0.17500503 0.6099993 1.0786889e-38
0.49546862 0.17493594 0.60999936 1.0786889e-38
0.50528896 0.17491572 0.60999978 1.0786889e-38
0.51464647 0.17495504 0.60999978 1.0786889e-38
0.52512765 0.17492333 0.60999995 1.0786889e-38
0.53567237 0.17528109 0.60999984 1.0786889e-38
0.54544342 0.17482968 0.6099999 1.0786889e-38
0.55137438 0.17555611 0.6099999 1.0786889e-38
0.32999846 0.18504424 0.60405153 0
0.33502966 0.18496402 0.60999852 1.0325911e-38
0.34531161 0.18498944 0.60999864 1.0694693e-38
0.35515061 0.1850078 0.6099987 1.0694693e-38
0.36508951 0.18502563 0.6099987 1.0694693e-38
0.37533459 0.1850452 0.6099987 1.0694693e-38
0.38505867 0.18496834 0.60999876 1.0694693e-38
0.39477909 0.18506585 0.60999876 1.0694693e-38
0.40485886 0.18498774 0.60999876 1.0694693e-38
0.4150064 0.18498141 0.60999882 1.0694693e-38
0.42539355 0.18500787 0.60999882 1.0694693e-38
0.4351941 0.18502612 0.60999882 1.0694693e-38
0.44512749 0.18504533 0.60999918 1.0786889e-38
0.45520934 0.18493682 0.60999918 1.0786889e-38
0.46545276 0.18495624 0.60999918 1.0786889e-38
0.4747192 0.18514815 0.60999942 1.0786889e-38
0.48436832 0.18501805 0.60999936 1.0786889e-38
0.49515495 0.18490553 0.60999936 1.0786889e-38
0.50534832 0.1848806 0.6099996 1.0786889e-38
0.51476562 0.1851576 0.60999978 1.0786889e-38
0.52517933 0.18500046 0.60999995 1.0786889e-38
0.53567231 0.18517017 0.60999984 1.0786889e-38
0.54544348 0.18479684 0.6099999 1.0786889e-38
0.55137438 0.18557064 0.6099999 1.0786889e-38
0.65563077 0.18950979 0.60151482 1.0786889e-38
0.68816864 0.18374296 0.60417694 1.0786889e-38
0.79450905 0.18992472 0.60732025 1.0786889e-38
0.32999843 0.19494672 0.60405135 0
0.33506572 0.19489196 0.60999852 1.0325911e-38
0.34533936 0.19495241 0.60999864 1.0694693e-38
0.35512227 0.19496262 0.6099987 1.0694693e-38
0.36514723 0.19507568 0.6099987 1.0694693e-38
0.37533459 0.19508828 0.6099987 1.0694693e-38
0.38496765 0.19498196 0.60999876 1.0694693e-38
0.39477861 0.19508144 0.60999876 1.0694693e-38
0.40466982 0.19506066 0.60999876 1.0694693e-38
0.41483754 0.19485936 0.60999882 1.0694693e-38
0.42511007 0.19501719 0.60999888 1.0694693e-38
0.43484184 0.19499667 0.60999888 1.0694693e-38
0.44474319 0.19497576 0.60999918 1.0694693e-38
0.45481825 0.19495456 0.60999918 1.0694693e-38
0.46507215 0.19493294 0.60999918 1.0786889e-38
0.47477546 0.19486125 0.60999942 1.0602497e-38
0.48455545 0.19502284 0.60999936 1.0786889e-38
0.49534541 0.19500127 0.60999936 1.0786889e-38
0.50546521 0.19500621 0.60999948 1.0786889e-38
0.51482636 0.19520268 0.60999978 1.0786889e-38
0.52523112 0.19507881 0.61000001 1.0786889e-38
0.53567231 0.19505928 0.60999984 1.0786889e-38
0.54544342 0.194764 0.6099999 1.0786889e-38
0.55137438 0.19558518 0.6099999 1.0786889e-38
0.62692326 0.19105162 0.60996646 1.0786889e-38
0.71921641 0.19522744 0.60795653 1.0694693e-38
0.32999846 0.20485379 0.60389978 0
0.33503047 0.20498975 0.60999846 1.0325911e-38
0.34536713 0.20491619 0.60999864 1.0694693e-38
0.35515046 0.20501919 0.6099987 1.0694693e-38
0.36514714 0.20502381 0.6099987 1.0694693e-38
0.37533456 0.20513134 0.6099987 1.0694693e-38
0.38487631 0.20499317 0.60999876 1.0694693e-38
0.39471564 0.20499052 0.60999876 1.0694693e-38
0.40468723 0.20500799 0.60999876 1.0694693e-38
0.41493836 0.20495433 0.60999882 1.0694693e-38
0.42537633 0.20490003 0.60999882 1.0694693e-38
0.43511271 0.2049648 0.60999888 1.0694693e-38
0.44501871 0.20503071 0.60999906 1.0694693e-38
0.45467952 0.20429625 0.6099993 1.0509942e-38
0.46333152 0.20162703 0.60999924 9.6794565e-39
0.48621041 0.2011421 0.60999954 1.0510663e-38
0.49615228 0.20256515 0.6099996 1.0602497e-38
0.50570315 0.2042186 0.60999966 1.0694693e-38
0.51470536 0.20509049 0.60999972 1.0786889e-38
0.52510214 0.20502049 0.6099999 1.0786889e-38
0.53567231 0.20494841 0.60999984 1.0786889e-38
0.54531658 0.20489952 0.6099999 1.0786889e-38
0.55137438 0.20559968 0.6099999 1.0786889e-38
0.32999846 0.21497737 0.60420263 0
0.33499402 0.21508643 0.60999852 1.0325911e-38
0.34531251 0.21498056 0.60999864 1.0694693e-38
0.35511956 0.21488239 0.60985637 1.0694693e-38
0.36511821 0.21507214 0.6099987 1.0694693e-38
0.37524256 0.21507215 0.6099987 1.0694693e-38
0.38496765 0.21500556 0.60999876 1.0694693e-38
0.39474764 0.21500637 0.60999876 1.0694693e-38
0.40478349 0.2149574 0.60999876 1.0694693e-38
0.41503909 0.21505202 0.60999882 1.0694693e-38
0.42529535 0.21490815 0.60999882 1.0694693e-38
0.43496734 0.21493188 0.60999888 1.0694693e-38
0.44475946 0.21498203 0.60999918 1.0602497e-38
0.45230681 0.21222527 0.60971928 1.0325911e-38
0.51620436 0.211319 0.60999966 1.0694693e-38
0.52561474 0.21364948 0.60999972 1.0694693e-38
0.53554749 0.21500355 0.6099999 1.0694693e-38
0.54544342 0.21502949 0.6099999 1.0786889e-38
0.55137438 0.2156142 0.6099999 1.0786889e-38
0.59021837 0.21517324 0.60227299 1.0602497e-38
0.32999846 0.22511473 0.60405165 0
0.33502969 0.22501484 0.60999852 1.0325911e-38
0.3453669 0.22513728 0.60999864 1.0694693e-38
0.35517874 0.2249317 0.60999864 1.0694693e-38
0.36514723 0.22512276 0.6099987 1.0694693e-38
0.37533459 0.22501168 0.6099987 1.0694693e-38
0.38491303 0.22501613 0.60999876 1.0694693e-38
0.39477935 0.22502308 0.60999876 1.0694693e-38
0.40482131 0.22503056 0.60999876 1.0694693e-38
0.41486901 0.22492604 0.60999882 1.0694693e-38
0.42531279 0.22503155 0.60999453 1.0694693e-38
0.43503103 0.22490104 0.60999888 1.0694693e-38
0.44253674 0.22386262 0.60999924 1.032555e-38
0.53761131 0.22256926 0.60999984 1.0602497e-38
0.54572433 0.22471108 0.60999978 1.0694693e-38
0.55137438 0.22562873 0.6099999 1.0694693e-38
0.57478184 0.22554079 0.60956794 1.0786889e-38
0.64695722 0.22174057 0.60556531 1.0786889e-38
0.32999843 0.23501725 0.60405111 0
0.33498308 0.23502955 0.60999852 1.0325911e-38
0.34531158 0.23520052 0.60999864 1.0694693e-38
0.35515073 0.23488598 0.6099987 1.0694693e-38
0.36514723 0.23507094 0.6099987 1.0694693e-38
0.37533453 0.23505473 0.6099987 1.0694693e-38
0.38494959 0.23490813 0.60999876 1.0694693e-38
0.39481112 0.23504065 0.60999876 1.0694693e-38
0.40476426 0.23497829 0.60999876 1.0694693e-38
0.41490552 0.23491408 0.60999882 1.0694693e-38
0.4253155 0.23504971 0.60999882 1.0694693e-38
0.43463188 0.23471192 0.60999894 1.0509942e-38
0.54753608 0.23426282 0.60999995 1.0602499e-38
0.55137438 0.23564325 0.6099999 1.0694693e-38
0.66403866 0.23980285 0.60383654 1.0694693e-38
0.80445927 0.23871456 0.60458076 1.0786889e-38
0.82785112 0.23591475 0.6071943 1.0694693e-38
0.3299984 0.24515003 0.60405111 0
0.33503014 0.2450399 0.60999852 1.0325911e-38
0.34533957 0.24506524 0.60999864 1.0694693e-38
0.3551231 0.24494399 0.60999864 1.0694693e-38
0.36514711 0.24501903 0.6099987 1.0694693e-38
0.37527335 0.24499518 0.6099987 1.0694693e-38
0.38496763 0.24492085 0.60999876 1.0694693e-38
0.39468369 0.24505651 0.60999876 1.0694693e-38
0.40470776 0.24492443 0.60999876 1.0694693e-38
0.41493842 0.24511546 0.60999882 1.0694693e-38
0.42535719 0.24506035 0.60999882 1.0694693e-38
0.43448445 0.24511082 0.60999888 1.0418105e-38
0.54839951 0.2451271 0.61000001 1.0694694e-38
0.55137438 0.2456578 0.6099999 1.0694693e-38
0.80681866 0.240345 0.60985702 1.0694693e-38
0.32999843 0.25528282 0.60405111 0
0.33507708 0.25505143 0.60999852 1.0325911e-38
0.34533927 0.25492841 0.60999864 1.0694693e-38
0.35509405 0.25509781 0.60999864 1.0694693e-38
0.36514726 0.25496718 0.6099987 1.0694693e-38
0.37533456 0.25493529 0.6099987 1.0694693e-38
0.38493636 0.25502616 0.60980994 1.0694693e-38
0.39477921 0.25496501 0.60999876 1.0694693e-38
0.40474579 0.25499719 0.60999876 1.0694693e-38
0.41493827 0.25510722 0.60999882 1.0694693e-38
0.42515531 0.25501564 0.60976082 1.0694693e-38
0.4350507 0.25505975 0.60999888 1.0694693e-38
0.44305074 0.25631055 0.60999912 1.0694693e-38
0.53955632 0.25842968 0.6099999 1.0232632e-38
0.54589772 0.25541627 0.60999978 1.0602136e-38
0.55337542 0.25646526 0.6099999 1.0694693e-38
0.32999843 0.26495498 0.60405129 0
0.33501768 0.26497805 0.60999852 1.0325911e-38
0.34528518 0.26499352 0.60999864 1.0694693e-38
0.35515058 0.26505345 0.6099987 1.0694693e-38
0.36514705 0.26501679 0.6099987 1.0694693e-38
0.37533459 0.26497838 0.6099987 1.0694693e-38
0.38498598 0.26506716 0.60999876 1.0694693e-38
0.39477912 0.26498061 0.60999876 1.0694693e-38
0.40478373 0.265071 0.60999876 1.0694693e-38
0.41493815 0.26487264 0.60999882 1.0694693e-38
0.4253155 0.265075 0.60999882 1.0694693e-38
0.43503037 0.26502731 0.60999888 1.0694693e-38
0.44493565 0.26485258 0.60999888 1.0694693e-38
0.45428792 0.26628429 0.60999936 1.0510302e-38
0.46268401 0.26861107 0.60999924 1.0510302e-38
0.53749692 0.26565716 0.60999978 1.050958e-38
0.54537976 0.26502946 0.6099999 1.0694693e-38
0.55537647 0.26562491 0.61000001 1.0694693e-38
0.32999837 0.27485749 0.60405171 0
0.33495969 0.27490607 0.60999852 1.0325911e-38
0.34533948 0.27495307 0.60999864 1.0694693e-38
0.35520616 0.27510726 0.60999864 1.0694693e-38
0.36514726 0.27506647 0.6099987 1.0694693e-38
0.3753345 0.27502143 0.6099987 1.0694693e-38
0.38496771 0.2750783 0.60999876 1.0694693e-38
0.39484373 0.27499369 0.60999876 1.0694693e-38
0.40472561 0.27502209 0.60999876 1.0694693e-38
0.4149383 0.27486438 0.60999882 1.0694693e-38
0.42529538 0.27495703 0.60999888 1.0694693e-38
0.43501073 0.27499428 0.60999888 1.0694693e-38
0.44489351 0.27503842 0.60999912 1.0694693e-38
0.45503548 0.27506971 0.60999918 1.0694693e-38
0.46513477 0.27510014 0.6099993 1.0602497e-38
0.4743709 0.27689764 0.60999948 1.0602497e-38
0.48152772 0.27874637 0.60999948 1.0510302e-38
0.51507968 0.27877516 0.60550135 1.0602497e-38
0.5285992 0.27819237 0.60999984 1.0324826e-38
0.53567213 0.2749947 0.60999984 1.0602137e-38
0.54544342 0.2751641 0.6099999 1.0694693e-38
0.55537653 0.27567136 0.60999995 1.0694693e-38
0.5750863 0.27652192 0.60625935 1.0694693e-38
0.66683739 0.2744596 0.60583329 1.0694693e-38
0.76713061 0.27805069 0.60626829 1.0694693e-38
0.86883843 0.27194148 0.60866803 1.0694693e-38
0.3299984 0.28499573 0.60420251 0
0.33500642 0.28491762 0.60999846 1.0325911e-38
0.3453086 0.28491336 0.60993046 1.0418106e-38
0.35515058 0.28516611 0.60999864 1.0694693e-38
0.36514729 0.28501457 0.6099987 1.0694693e-38
0.37533453 0.28506449 0.60999876 1.0694693e-38
0.38485825 0.2852031 0.60987872 1.0694693e-38
0.39477935 0.28490809 0.60999876 1.0694693e-38
0.4048031 0.28484157 0.60999876 1.0694693e-38
0.41493133 0.28490177 0.60999304 1.0694693e-38
0.42527631 0.28483862 0.60999882 1.0694693e-38
0.43500969 0.28509498 0.60999888 1.0694693e-38
0.44495666 0.28508523 0.60999906 1.0694693e-38
0.45499215 0.28509501 0.60999918 1.0694693e-38
0.4652932 0.28508502 0.60999924 1.0694693e-38
0.47469884 0.28508478 0.60979271 1.0602497e-38
0.48453176 0.28495675 0.6099993 1.0602497e-38
0.49452487 0.28692219 0.6099996 1.0602497e-38
0.5047155 0.28855559 0.6099996 1.0510303e-38
0.51587749 0.28838295 0.60999972 1.050994e-38
0.52562439 0.28564847 0.60999984 1.05103e-38
0.53567237 0.28504857 0.60999984 1.0694693e-38
0.54544342 0.28513131 0.6099999 1.0694693e-38
0.55537653 0.28571787 0.60999995 1.0694693e-38
0.3299984 0.29511756 0.60389972 0
0.33505332 0.29493052 0.60999846 1.0325911e-38
0.34539399 0.29507673 0.60999864 1.0694693e-38
0.35515061 0.29502103 0.60999864 1.0694693e-38
0.36514705 0.29496267 0.6099987 1.0694693e-38
0.37533453 0.29510754 0.6099987 1.0694693e-38
0.38493019 0.29510519 0.6099987 1.0694693e-38
0.39477906 0.29502806 0.60999876 1.0694693e-38
0.40474585 0.29479191 0.60999876 1.0694693e-38
0.4149383 0.29494435 0.60999882 1.0694693e-38
0.4253155 0.2951003 0.60999882 1.0694693e-38
0.43506613 0.29495957 0.60977411 1.0694693e-38
0.44493142 0.29494131 0.60980558 1.0602497e-38
0.45503557 0.29510051 0.60999918 1.0694693e-38
0.46518034 0.29507026 0.60999924 1.0694693e-38
0.47488698 0.29499525 0.60999936 1.0694693e-38
0.48453292 0.29497069 0.60999936 1.0694693e-38
0.49539384 0.29491964 0.60999936 1.0694693e-38
0.50546724 0.29486111 0.60999954 1.0694693e-38
0.51470518 0.29501399 0.60999978 1.0694693e-38
0.52502465 0.29503158 0.60999995 1.0694693e-38
0.53567237 0.29493761 0.60999984 1.0694693e-38
0.54544348 0.29509845 0.60999984 1.0694693e-38
0.55522192 0.29598814 0.60999978 1.0694693e-38
0.64731574 0.29672199 0.60679877 1.0694693e-38
0.76160359 0.29774919 0.60016024 1.0694693e-38
0.32999843 0.30502552 0.60405123 0
0.33510038 0.30494487 0.60999852 1.0325911e-38
0.34533948 0.30504122 0.60999864 1.0694693e-38
0.3551504 0.30497658 0.60999864 1.0694693e-38
0.36514705 0.30491078 0.6099987 1.0694693e-38
0.37530407 0.30504844 0.60999876 1.0694693e-38
0.38496765 0.30499396 0.60999876 1.0694693e-38
0.39471424 0.30504432 0.60999876 1.0694693e-38
0.40487245 0.30488053 0.60984188 1.0694693e-38
0.41490495 0.30491456 0.6099683 1.0694693e-38
0.42519248 0.30510944 0.60999882 1.0694693e-38
0.43505087 0.30502909 0.60999888 1.0694693e-38
0.44495666 0.30494153 0.60999894 1.0694693e-38
0.45499215 0.30512503 0.60999918 1.0694693e-38
0.46538168 0.30503565 0.60999918 1.0694693e-38
0.474832 0.30487564 0.60999942 1.0694693e-38
0.48460293 0.30510241 0.6099993 1.0694693e-38
0.49532101 0.30488631 0.60999936 1.0694693e-38
0.50540817 0.30498803 0.60999972 1.0694693e-38
0.51470536 0.30489764 0.60999972 1.0694693e-38
0.52523118 0.30510405 0.60999995 1.0694693e-38
0.53567237 0.30482674 0.60999978 1.0694693e-38
0.54544348 0.30506557 0.60999984 1.0694693e-38
0.55443144 0.30510578 0.60999978 1.0694693e-38
0.32999843 0.31492797 0.60405159 0
0.33495963 0.31495425 0.60999846 1.0325911e-38
0.34525788 0.31500417 0.60999864 1.0694693e-38
0.35506588 0.3150329 0.60999864 1.0694693e-38
0.36506084 0.31496063 0.6099987 1.0694693e-38
0.37533468 0.31498849 0.60999876 1.0694693e-38
0.38491297 0.3150059 0.6099987 1.0694693e-38
0.39471558 0.3149544 0.60999876 1.0694693e-38
0.40468708 0.31506342 0.60999876 1.0694693e-38
0.41483736 0.31491953 0.60999882 1.0694693e-38
0.42537612 0.31498533 0.60999882 1.0694693e-38
0.43492562 0.31512362 0.60999888 1.0694693e-38
0.44485196 0.3150053 0.60999906 1.0694693e-38
0.45503548 0.31513131 0.60999918 1.0694693e-38
0.4652707 0.31501359 0.60999924 1.0694693e-38
0.47488546 0.31490958 0.60999942 1.0694693e-38
0.48453146 0.3149786 0.6099993 1.0694693e-38
0.49525031 0.3148582 0.60999936 1.0694693e-38
0.50534821 0.31511343 0.60999954 1.0694693e-38
0.51476556 0.3147856 0.60999978 1.0694693e-38
0.52507615 0.31518254 0.60999995 1.0694693e-38
0.53579438 0.31493241 0.60982412 1.0694693e-38
0.54544348 0.31503269 0.60999984 1.0694693e-38
0.55470634 0.31486312 0.60999978 1.0694693e-38
0.3299984 0.32506081 0.60420263 0
0.33500645 0.32496762 0.60999846 1.0325911e-38
0.34536716 0.32506579 0.60999864 1.0694693e-38
0.35515061 0.32498744 0.60999864 1.0694693e-38
0.36514726 0.32500926 0.60999864 1.0694693e-38
0.37533456 0.32503152 0.6099987 1.0694693e-38
0.38496771 0.32501787 0.60999876 1.0694693e-38
0.39484254 0.32496974 0.60999876 1.0694693e-38
0.40482122 0.3250086 0.60999876 1.0694693e-38
0.41490468 0.32490531 0.60999882 1.0694693e-38
0.42524841 0.32508981 0.60997993 1.0694693e-38
0.43511242 0.32508647 0.60999882 1.0694693e-38
0.44504195 0.32505527 0.60999906 1.0694693e-38
0.45492467 0.32502589 0.60999918 1.0694693e-38
0.46516067 0.32498878 0.60999918 1.0694693e-38
0.47477713 0.32508823 0.60999942 1.0694693e-38
0.48446202 0.32486007 0.6099993 1.0694693e-38
0.49534577 0.32495165 0.60999936 1.0694693e-38
0.50540769 0.32508615 0.60999948 1.0694693e-38
0.51470566 0.32498944 0.60999978 1.0694693e-38
0.52510202 0.32512569 0.6099999 1.0694693e-38
0.53567243 0.32493508 0.60999978 1.0694693e-38
0.54544342 0.32499984 0.60999984 1.0694693e-38
0.55470628 0.32490429 0.60999984 1.0694693e-38
0.32999843 0.33496189 0.60405141 0
0.33505347 0.33498237 0.60999846 1.0325911e-38
0.34528407 0.33502772 0.60999864 1.0694693e-38
0.35517874 0.33494338 0.60999864 1.0694693e-38
0.36514714 0.33495739 0.6099987 1.0694693e-38
0.37533459 0.3350746 0.6099987 1.0694693e-38
0.38505861 0.33503029 0.6099987 1.0694693e-38
0.39474764 0.33498505 0.60999876 1.0694693e-38
0.40470785 0.33507872 0.60999876 1.0694693e-38
0.41497207 0.3348929 0.60999882 1.0694693e-38
0.42529589 0.33500558 0.60999882 1.0694693e-38
0.43510705 0.33496848 0.60994822 1.0694693e-38
0.44482866 0.33498469 0.60999894 1.0694693e-38
0.45509848 0.3350347 0.60999918 1.0694693e-38
0.46536183 0.33495894 0.60999924 1.0694693e-38
0.47477749 0.33512709 0.60999942 1.0694693e-38
0.48455581 0.33486342 0.6099993 1.0694693e-38
0.49544135 0.33504748 0.60999936 1.0694693e-38
0.50540793 0.3348943 0.60999954 1.0694693e-38
0.5146448 0.33519185 0.60999978 1.0694693e-38
0.52510208 0.33493039 0.6099999 1.0694693e-38
0.53554749 0.3349888 0.60999984 1.0694693e-38
0.5455665 0.3348245 0.60979062 1.0694693e-38
0.55470634 0.33494541 0.6099999 1.0694693e-38
0.3299984 0.34486708 0.60389972 0
0.33493611 0.34499413 0.60999846 1.0325911e-38
0.345395 0.34499237 0.60999864 1.0694693e-38
0.35509399 0.34499782 0.60999864 1.0694693e-38
0.36514726 0.34490559 0.60999864 1.0694693e-38
0.37533459 0.3451176 0.6099987 1.0694693e-38
0.38494959 0.34491995 0.60999876 1.0694693e-38
0.39477924 0.34510514 0.60999876 1.0694693e-38
0.40484205 0.3450267 0.60999876 1.0694693e-38
0.41503659 0.34498844 0.60999882 1.0694693e-38
0.42537609 0.34501237 0.60999882 1.0694693e-38
0.43505171 0.34489718 0.60999888 1.0694693e-38
0.44490051 0.34492484 0.60998398 1.0694693e-38
0.45492464 0.34505478 0.60999918 1.0694693e-38
0.465249 0.34494042 0.60999924 1.0694693e-38
0.47488701 0.34514755 0.60999942 1.0694693e-38
0.48464972 0.34486911 0.6099993 1.0694693e-38
0.49537009 0.34501967 0.60999936 1.0694693e-38
0.50535041 0.34486765 0.60999948 1.0694693e-38
0.51470536 0.34508035 0.60999972 1.0694693e-38
0.52500176 0.34500924 0.60999995 1.0694693e-38
0.53567231 0.34504193 0.60999984 1.0694693e-38
0.54544348 0.34493414 0.60999984 1.0694693e-38
0.55470634 0.34498656 0.60999984 1.0694693e-38
0.74819815 0.34577858 0.60323513 1.0694693e-38
0.32999843 0.3549985 0.60405153 0
0.33506474 0.35509035 0.6099984 1.0325911e-38
0.34531173 0.35495323 0.60999864 1.0694693e-38
0.35515061 0.35495427 0.60999864 1.0694693e-38
0.36517593 0.35495612 0.6099987 1.0694693e-38
0.37533465 0.35516065 0.6099987 1.0694693e-38
0.38496765 0.35493448 0.60999876 1.0694693e-38
0.39477888 0.3550165 0.60999876 1.0694693e-38
0.40478358 0.35498065 0.60999876 1.0694693e-38
0.41483733 0.355077 0.60999882 1.0694693e-38
0.42521524 0.3550238 0.60999882 1.0694693e-38
0.43494883 0.35487041 0.60999888 1.0694693e-38
0.44493523 0.3549673 0.60999906 1.0694693e-38
0.45509845 0.3550666 0.60999918 1.0694693e-38
0.46529314 0.35503697 0.60999924 1.0694693e-38
0.47483188 0.35502556 0.60999936 1.0694693e-38
0.48446199 0.35488024 0.6099993 1.0694693e-38
0.49522337 0.35484719 0.60999936 1.0694693e-38
0.50546563 0.35514924 0.60999966 1.0694693e-38
0.51470512 0.35496396 0.60999978 1.0694693e-38
0.52510202 0.35508353 0.6099999 1.0694693e-38
0.53567237 0.35493103 0.60999978 1.0694693e-38
0.54544353 0.35490134 0.60999984 1.0694693e-38
0.55470634 0.35502771 0.60999978 1.0694693e-38
0.73230422 0.35207933 0.60726327 1.0694693e-38
0.75845516 0.35326889 0.6082145 1.0694693e-38
0.32999846 0.36512592 0.60420251 0
0.33502999 0.36501893 0.60999852 1.0325911e-38
0.34542122 0.36502013 0.60999864 1.0694693e-38
0.35517836 0.36501163 0.60999864 1.0694693e-38
0.36508945 0.36510399 0.6099987 1.0694693e-38
0.37533453 0.36520374 0.6099987 1.0694693e-38
0.38496757 0.36506742 0.60999876 1.0694693e-38
0.39477909 0.36492771 0.60999876 1.0694693e-38
0.40466979 0.36504698 0.60999876 1.0694693e-38
0.41490489 0.3650651 0.60999882 1.0694693e-38
0.42529574 0.36503041 0.60999882 1.0694693e-38
0.43503076 0.36496335 0.60999888 1.0694693e-38
0.44493547 0.36489525 0.60999894 1.0694693e-38
0.45492467 0.36508363 0.60999918 1.0694693e-38
0.46518034 0.36501533 0.60999924 1.0694693e-38
0.4747774 0.36490226 0.60999936 1.0694693e-38
0.48455581 0.3648859 0.6099993 1.0694693e-38
0.49525118 0.36492872 0.60985225 1.0694693e-38
0.50540781 0.36512271 0.60999954 1.0694693e-38
0.5147053 0.36484763 0.60999972 1.0694693e-38
0.52510214 0.36488828 0.6099999 1.0694693e-38
0.53567237 0.36482009 0.60999978 1.0694693e-38
0.54544348 0.36486846 0.60999984 1.0694693e-38
0.55490232 0.36477849 0.6099999 1.0694693e-38
0.32999843 0.37503242 0.60405129 0
0.33502969 0.37485895 0.60999846 1.0325911e-38
0.34525642 0.37507504 0.60999864 1.0694693e-38
0.35515058 0.37506676 0.60999864 1.0694693e-38
0.36514714 0.37515566 0.6099987 1.0694693e-38
0.37533459 0.37524682 0.6099987 1.0694693e-38
0.38489276 0.37495854 0.6099987 1.0694693e-38
0.39474687 0.37494174 0.60999876 1.0694693e-38
0.40476465 0.37499776 0.60999876 1.0694693e-38
0.41497189 0.37505522 0.60999882 1.0694693e-38
0.42529404 0.37505135 0.60979474 1.0694693e-38
0.43511242 0.37505859 0.60999888 1.0694693e-38
0.44501853 0.37507832 0.609999 1.0694693e-38
0.45499182 0.37497264 0.60999918 1.0694693e-38
0.46527094 0.37485924 0.60999918 1.0694693e-38
0.47488698 0.37492549 0.60999936 1.0694693e-38
0.48464981 0.37489402 0.6099993 1.0694693e-38
0.49544135 0.37491313 0.60999936 1.0694693e-38
0.50540757 0.37493077 0.60999978 1.0694693e-38
0.51464683 0.37489635 0.60999978 1.0694693e-38
0.5251019 0.37496528 0.60999995 1.0694693e-38
0.5357331 0.37503579 0.60999984 1.0694693e-38
0.54544324 0.37500179 0.6099999 1.0694693e-38
0.55484641 0.37475485 0.60999978 1.0694693e-38
0.84697086 0.37851891 0.60402274 1.0694693e-38
0.3299984 0.3849431 0.60389984 0
0.3349953 0.38495895 0.6099984 1.0233715e-38
0.34528401 0.38504201 0.60999864 1.0602497e-38
0.35515058 0.38492173 0.60999864 1.0602497e-38
0.36514729 0.38510385 0.6099987 1.0694693e-38
0.37524074 0.38508782 0.6099987 1.0694693e-38
0.38496763 0.38484988 0.60999876 1.0694693e-38
0.394779 0.38495874 0.60999876 1.0694693e-38
0.40476441 0.3850694 0.60999876 1.0694693e-38
0.414938 0.38493466 0.60999876 1.0694693e-38
0.42521518 0.38504642 0.60999882 1.0694693e-38
0.43494874 0.38515225 0.60999882 1.0694693e-38
0.44484767 0.38500524 0.60999906 1.0694693e-38
0.45503584 0.38498148 0.60999918 1.0694693e-38
0.46527117 0.38496321 0.60999924 1.0694693e-38
0.4747225 0.38496372 0.60999936 1.0694693e-38
0.48446202 0.38490039 0.6099993 1.0694693e-38
0.49525025 0.38501048 0.60999936 1.0694693e-38
0.50535041 0.38506299 0.60999948 1.0694693e-38
0.5147053 0.38493842 0.60999972 1.0694693e-38
0.52510202 0.38504231 0.6099999 1.0694693e-38
0.53567237 0.38525814 0.60999984 1.0694693e-38
0.54544348 0.38513502 0.60999984 1.0694693e-38
0.55537176 0.38450769 0.60999972 1.0694693e-38
0.65466237 0.38064978 0.60155743 1.0694693e-38
0.3299984 0.39506903 0.60405153 0
0.33498305 0.39505762 0.60999852 1.0233715e-38
0.34536713 0.39500195 0.60999864 1.0602497e-38
0.35506591 0.39487895 0.60999864 1.0602497e-38
0.36514714 0.39505187 0.60999864 1.0602497e-38
0.37533456 0.39492214 0.6099987 1.0602497e-38
0.38496757 0.3949827 0.60999876 1.0694693e-38
0.39474747 0.39508078 0.60999876 1.0694693e-38
0.40484205 0.39514303 0.60999876 1.0694693e-38
0.4149048 0.3948133 0.60999882 1.0694693e-38
0.42529577 0.39505512 0.60999882 1.0694693e-38
0.4350099 0.39512393 0.60999888 1.0694693e-38
0.44501847 0.39493579 0.60999888 1.0694693e-38
0.45499191 0.39500266 0.60999918 1.0694693e-38
0.46527106 0.39506724 0.60999918 1.0694693e-38
0.47483185 0.39498794 0.60999942 1.0694693e-38
0.48455584 0.39490846 0.6099993 1.0694693e-38
0.49534556 0.39510956 0.60999936 1.0694693e-38
0.50540793 0.39502895 0.60999954 1.0694693e-38
0.51476401 0.3949821 0.60999978 1.0694693e-38
0.52510208 0.39484692 0.6099999 1.0694693e-38
0.53567237 0.39514726 0.60999978 1.0694693e-38
0.54547244 0.39524132 0.60977334 1.0602497e-38
0.55537015 0.39472157 0.6099999 1.0694693e-38
0.58969945 0.39158481 0.60261238 1.0694693e-38
0.66609281 0.39607486 0.60755831 1.0694693e-38
0.32999846 0.40519091 0.60420245 0
0.33511382 0.40498212 0.60999846 1.0233715e-38
0.34531155 0.40496862 0.60999864 1.0602497e-38
0.3551504 0.40493244 0.60999864 1.0602497e-38
0.36514717 0.40500003 0.6099987 1.0602497e-38
0.37527442 0.40498245 0.60975325 1.0602497e-38
0.38491297 0.40499598 0.60999876 1.0602497e-38
0.39484254 0.40509465 0.60999876 1.0602497e-38
0.40468687 0.40496516 0.60999876 1.0602497e-38
0.41490534 0.40491053 0.60999882 1.0602497e-38
0.42537612 0.40506607 0.60999882 1.0602497e-38
0.43505141 0.40496075 0.60999888 1.0602497e-38
0.44478592 0.40498829 0.60999894 1.0602497e-38
0.45503578 0.40501234 0.60999918 1.0602497e-38
0.46524912 0.40504426 0.60999918 1.0602497e-38
0.47501388 0.4048802 0.60996526 1.0602497e-38
0.48464966 0.40491888 0.6099993 1.0602497e-38
0.49532107 0.40507793 0.60999936 1.0694693e-38
0.50546551 0.40499631 0.60999948 1.0694693e-38
0.51470536 0.40503028 0.60999978 1.0694693e-38
0.52520233 0.40492702 0.60999995 1.0694693e-38
0.53567237 0.40503627 0.60999978 1.0694693e-38
0.54533225 0.40508747 0.60972178 1.0694693e-38
0.55537021 0.40476805 0.6099999 1.0694693e-38
0.754682 0.40629855 0.6068185 1.0694693e-38
0.32999843 0.41510296 0.60405117 0
0.3349492 0.41499594 0.6099984 1.0233715e-38
0.34539509 0.41493064 0.60999864 1.0602497e-38
0.35523567 0.41498837 0.60999864 1.0602497e-38
0.36514717 0.41494811 0.6099987 1.0602497e-38
0.37533453 0.41500828 0.6099987 1.0602497e-38
0.38496765 0.41500655 0.6099987 1.0602497e-38
0.39468178 0.41500607 0.60999876 1.0602497e-38
0.40470785 0.41491643 0.60999876 1.0602497e-38
0.41490453 0.41500336 0.60999882 1.0602497e-38
0.4252153 0.41506901 0.60999882 1.0602497e-38
0.43503085 0.41493195 0.60999882 1.0602497e-38
0.44497722 0.41504544 0.609999 1.0602497e-38
0.45501366 0.41490197 0.60999918 1.0602497e-38
0.46522537 0.41501403 0.60999924 1.0602497e-38
0.4747774 0.41504994 0.60999942 1.0602497e-38
0.48446217 0.41492051 0.60999936 1.0602497e-38
0.49534622 0.41504052 0.60999936 1.0602497e-38
0.50540775 0.41512805 0.60999948 1.0602497e-38
0.51470524 0.41491392 0.60999978 1.0602497e-38
0.52497351 0.41513669 0.60999995 1.0602497e-38
0.53567237 0.41492549 0.60999984 1.0602497e-38
0.54544348 0.4150365 0.60999978 1.0602497e-38
0.55537015 0.41481444 0.60999984 1.0602497e-38
0.69229114 0.41503307 0.60925019 1.0694693e-38
0.28829861 0.42978793 0.60671234 2.0283039e-39
0.29464504 0.42976877 0.60517699 1.5673257e-39
0.30484441 0.4297649 0.60522997 1.751717e-39
0.31518903 0.42975554 0.60529512 1.751717e-39
0.32730779 0.42766002 0.60465813 9.219563e-40
0.33501783 0.42500803 0.60999852 1.0233715e-38
0.34525785 0.42499191 0.60999864 1.0602497e-38
0.35510659 0.42511576 0.6098417 1.0510302e-38
0.36514723 0.42489627 0.60999864 1.0602497e-38
0.37533456 0.42505139 0.6099987 1.0602497e-38
0.38502243 0.42501867 0.6099987 1.0602497e-38
0.39477912 0.42502049 0.6099987 1.0602497e-38
0.40482134 0.42498711 0.60999876 1.0602497e-38
0.41503903 0.42498925 0.60999882 1.0602497e-38
0.42529583 0.42507991 0.60999882 1.0602497e-38
0.43500945 0.42490256 0.60999888 1.0602497e-38
0.44495642 0.42509729 0.60999882 1.0602497e-38
0.45501393 0.42491713 0.60999912 1.0602497e-38
0.46542594 0.4249942 0.60999924 1.0602497e-38
0.47488689 0.42507774 0.60999942 1.0602497e-38
0.48455581 0.42493096 0.6099993 1.0602497e-38
0.49537009 0.42500368 0.60999936 1.0602497e-38
0.50528908 0.4250983 0.60999948 1.0602497e-38
0.51458466 0.42496088 0.60999978 1.0602497e-38
0.52510202 0.4250778 0.6099999 1.0602497e-38
0.53567213 0.42497933 0.60999984 1.0602497e-38
0.54544348 0.42500362 0.60999984 1.0602497e-38
0.55521137 0.42493606 0.60991138 1.0602497e-38
0.620107 0.42606142 0.60532892 1.0694693e-38
0.70846796 0.42310509 0.6095295 1.0602497e-38
0.75917852 0.42670509 0.60657322 1.0510302e-38
0.28760362 0.43516898 0.60999858 1.0694693e-38
0.29452822 0.43496674 0.60999835 1.0510302e-38
0.30464625 0.43498504 0.6099984 1.0602497e-38
0.31495622 0.43498144 0.60987413 1.0418106e-38
0.32480907 0.43499458 0.60999262 1.0602497e-38
0.33503017 0.43493456 0.60999846 1.0602497e-38
0.34533957 0.43495455 0.60999858 1.0694693e-38
0.3551755 0.43509215 0.60985047 1.0602497e-38
0.36511847 0.43494701 0.60999858 1.0602497e-38
0.37533477 0.43509468 0.60999846 1.0694693e-38
0.38496789 0.4350318 0.6099984 1.0602497e-38
0.39481148 0.43503559 0.60999835 1.0694693e-38
0.40474626 0.43506157 0.6099984 1.0694693e-38
0.41490522 0.43497357 0.60999829 1.0602497e-38
0.42527536 0.43496552 0.60999823 1.0694693e-38
0.4349907 0.43486676 0.60999823 1.0602497e-38
0.4449147 0.43503022 0.60999823 1.0694693e-38
0.45501414 0.4349328 0.60999852 1.0602497e-38
0.4651162 0.43508965 0.60999918 1.0602497e-38
0.47472253 0.43510908 0.60999936 1.0602497e-38
0.48453316 0.43507224 0.6099993 1.0602497e-38
0.49534568 0.43497196 0.60999936 1.0602497e-38
0.5054673 0.43506488 0.60999948 1.0602497e-38
0.51476562 0.4350042 0.60999978 1.0602497e-38
0.52512753 0.43501633 0.60999995 1.0602497e-38
0.53567237 0.43503326 0.60999978 1.0602497e-38
0.54544353 0.43497086 0.60999984 1.0602497e-38
0.55537009 0.43490735 0.6099999 1.0602497e-38
0.28760353 0.4450534 0.60999846 1.0694693e-38
0.29437199 0.44500142 0.6099984 1.0694693e-38
0.30463561 0.44495568 0.60999846 1.0694693e-38
0.31505889 0.44499502 0.6099984 1.0694693e-38
0.32496831 0.44497526 0.60999858 1.0694693e-38
0.33500639 0.44494951 0.60999846 1.0694693e-38
0.34536701 0.4449167 0.60999858 1.0694693e-38
0.35515076 0.445057 0.60999858 1.0694693e-38
0.36514726 0.44499537 0.60999852 1.0694693e-38
0.37533471 0.44513768 0.60999852 1.0694693e-38
0.3849498 0.44504565 0.60999852 1.0694693e-38
0.39481127 0.44494739 0.60999852 1.0694693e-38
0.4047645 0.44500843 0.6099984 1.0694693e-38
0.41490588 0.44507086 0.60999829 1.0694693e-38
0.42525625 0.44484377 0.60999823 1.0694693e-38
0.43507248 0.44496632 0.60999823 1.0694693e-38
0.44495696 0.44495422 0.60999823 1.0694693e-38
0.45502388 0.44496322 0.60993576 1.0602497e-38
0.46531197 0.44502005 0.60996097 1.0602497e-38
0.474832 0.44513783 0.60999942 1.0602497e-38
0.48461175 0.4452002 0.60996127 1.0510302e-38
0.49532101 0.44493943 0.60999936 1.0602497e-38
0.50534838 0.44503406 0.60999948 1.0602497e-38
0.51464468 0.44505012 0.60999978 1.0602497e-38
0.52502465 0.4450947 0.60999995 1.0602497e-38
0.53567237 0.44492236 0.60999978 1.0602497e-38
0.54544348 0.44493797 0.60999984 1.0602497e-38
0.55537015 0.4449538 0.60999984 1.0602497e-38
0.56341946 0.44749379 0.60999995 1.0602497e-38
0.28760362 0.45493773 0.60999864 1.0694693e-38
0.29450786 0.45503852 0.6099984 1.0694693e-38
0.30463517 0.45501012 0.6099984 1.0694693e-38
0.31494781 0.45498008 0.6099984 1.0694693e-38
0.32481226 0.45504001 0.60999858 1.0694693e-38
0.3350651 0.45504457 0.6099984 1.0694693e-38
0.34536731 0.45497966 0.60999858 1.0694693e-38
0.35512242 0.45501286 0.60999858 1.0694693e-38
0.36514729 0.4549436 0.60999858 1.0694693e-38
0.37527356 0.45507908 0.60999852 1.0694693e-38
0.3849678 0.45505604 0.60999858 1.0694693e-38
0.39474776 0.45496437 0.60999852 1.0694693e-38
0.40478393 0.45495579 0.60999852 1.0694693e-38
0.41490418 0.45505747 0.6099984 1.0694693e-38
0.42535508 0.45498103 0.60999829 1.0694693e-38
0.4350521 0.45493078 0.60999823 1.0694693e-38
0.4449358 0.45501146 0.60999823 1.0694693e-38
0.45461503 0.45454103 0.60999858 1.0602497e-38
0.46520975 0.45361379 0.60999936 1.0325911e-38
0.47483233 0.45375738 0.60999948 1.0325911e-38
0.48452243 0.45350757 0.60999954 1.0418106e-38
0.49528137 0.45356965 0.6099996 1.0325911e-38
0.5055756 0.4535577 0.6099996 1.0418106e-38
0.51487559 0.45363933 0.60999972 1.0325911e-38
0.52517498 0.45367938 0.60999972 1.0325911e-38
0.53558433 0.4534919 0.60999972 1.0418106e-38
0.54535413 0.45357513 0.60999972 1.0418106e-38
0.55527931 0.45365965 0.60999978 1.0325911e-38
0.56341946 0.45339173 0.60999995 1.0602497e-38
0.28765744 0.46504709 0.60999864 1.0602497e-38
0.29449755 0.4650718 0.60999846 1.0602497e-38
0.30463567 0.46506464 0.6099984 1.0694693e-38
0.31501427 0.46497121 0.60999846 1.0694693e-38
0.32496911 0.46500143 0.60999858 1.0694693e-38
0.33501792 0.46505848 0.60999846 1.0694693e-38
0.34531173 0.46494305 0.60999858 1.0694693e-38
0.35515073 0.4649677 0.60999858 1.0694693e-38
0.36506104 0.46499345 0.60999858 1.0694693e-38
0.3753348 0.46501833 0.60999858 1.0694693e-38
0.38487655 0.46506897 0.60999858 1.0694693e-38
0.39468399 0.46497962 0.60999852 1.0694693e-38
0.4047083 0.46502712 0.60999858 1.0694693e-38
