# .PCD v0.7 - Point Cloud Data file format
VERSION 0.7
FIELDS x y z rgb
SIZE 4 4 4 4
TYPE F F F F
COUNT 1 1 1 1
WIDTH 1012
HEIGHT 1
VIEWPOINT 0 0 0 1 0 0 0
POINTS 1012
DATA ascii
0.57206178 0.072360381 0.64666069 9.5656571e-39
0.64765227 0.10821015 0.64475495 1.078725e-38
0.63556981 0.11588682 0.6448257 9.6776671e-39
0.64173454 0.11069588 0.64589679 1.1524454e-38
0.62735784 0.12618487 0.64497387 2.8548766e-39
0.63106751 0.12105179 0.64424819 2.7637669e-39
0.62282646 0.13515176 0.64486951 2.6708398e-39
0.62081712 0.14536512 0.64466316 5.3437676e-39
0.62036961 0.15137865 0.64507931 1.1708845e-38
0.46231964 0.19907901 0.64505023 8.3008619e-39
0.44904271 0.20835844 0.64479804 6.1821757e-39
0.45463556 0.20353583 0.6441924 6.3669271e-39
0.46108368 0.20029631 0.64569509 6.827185e-39
0.4446888 0.21498258 0.64510107 6.1821757e-39
0.43696275 0.2259649 0.64521855 6.1821757e-39
0.44057712 0.22094838 0.64566678 6.1821757e-39
0.42902344 0.23802522 0.64539582 6.1821757e-39
0.4319227 0.23303322 0.64481866 6.1821757e-39
0.61619729 0.23831303 0.64659595 8.3064685e-39
0.62279463 0.23518896 0.64731896 8.7653181e-39
0.42844045 0.24510609 0.64421624 6.2740084e-39
0.60695779 0.24626736 0.64484519 8.3064685e-39
0.6111834 0.24147755 0.64548945 8.3064685e-39
0.42979199 0.25123078 0.6442579 6.4573136e-39
0.43372539 0.25507054 0.64454484 7.1919808e-39
0.597664 0.25705197 0.64457411 8.3064685e-39
0.60202277 0.25213203 0.64503998 8.3064685e-39
0.58772314 0.26743567 0.64504844 8.3064685e-39
0.59272504 0.26236323 0.64456296 8.3064685e-39
0.60297602 0.26246902 0.64559925 8.7670921e-39
0.57797521 0.27755725 0.64505833 1.0053575e-38
0.58263236 0.27269098 0.64513373 8.9500653e-39
0.56841868 0.28783974 0.64494526 9.3177828e-39
0.57293522 0.28287593 0.64472896 9.1337433e-39
0.55910355 0.29870304 0.64448261 9.6858563e-39
0.56313527 0.29381242 0.64509588 8.6741874e-39
0.5540753 0.30505663 0.64504534 8.6741888e-39
0.54686648 0.31529966 0.64529049 8.3064685e-39
0.55020034 0.31057569 0.64365923 8.3064685e-39
0.54395479 0.32430002 0.6450156 5.3469177e-39
0.54848975 0.33071345 0.64374858 4.6961926e-39
0.54826587 -0.33295551 0.65448672 3.0439818e-39
0.54753184 -0.32522118 0.65320462 3.4131469e-39
0.5503571 -0.32522133 0.65554953 3.136553e-39
0.54906994 -0.31536812 0.65414405 3.2287514e-39
0.55064392 -0.31486639 0.65372288 3.2287542e-39
0.56055641 -0.31652251 0.65254736 7.5608054e-39
0.5497812 -0.30968279 0.65898567 2.8599577e-39
0.55167037 -0.30469331 0.65451425 2.8599605e-39
0.55384493 -0.29473367 0.65534085 2.8599577e-39
0.55507487 -0.28515601 0.65497446 4.3347122e-39
0.5564546 -0.27482906 0.65506279 1.0601418e-38
0.55794293 -0.2646572 0.65508443 9.6794565e-39
0.55931413 -0.25562093 0.65475327 9.1262828e-39
0.56017774 -0.25138903 0.65701956 8.5727502e-39
0.55987245 -0.24855456 0.65076101 1.1616649e-38
0.56091642 -0.24474916 0.65559196 8.5720286e-39
0.5621618 -0.23470971 0.65495378 8.9408097e-39
0.56306559 -0.22524324 0.65478337 9.494345e-39
0.56392473 -0.21500717 0.65476668 1.0970557e-38
0.56509238 -0.20532858 0.65554607 1.143262e-38
0.56699729 -0.19504787 0.65493953 4.4265477e-39
0.56914908 -0.18791811 0.65530878 2.8599577e-39
0.57090002 -0.18292856 0.65521652 2.8599577e-39
0.57369465 -0.17525752 0.654769 2.8599577e-39
0.57719654 -0.16771691 0.6558013 2.8595989e-39
0.58311981 -0.1639875 0.6583373 3.8737383e-39
0.58840358 -0.070459664 0.65228665 1.1523015e-38
0.57955754 -0.061327174 0.65560848 6.7958267e-39
0.58382452 -0.065612607 0.65359682 9.4658986e-39
0.57446408 -0.055338956 0.65518361 6.7039912e-39
0.56811005 -0.044265773 0.65452504 6.5203202e-39
0.57064962 -0.049283516 0.65519094 5.9693073e-39
0.56295395 -0.035023 0.65467012 8.4488656e-39
0.55688232 -0.024729481 0.65533507 8.7243721e-39
0.54941052 -0.011810848 0.65549451 8.7243721e-39
0.55211419 -0.016588552 0.65476865 8.7243721e-39
0.54564095 -0.0051053092 0.6548785 8.6336184e-39
0.53883088 0.007435035 0.65529871 8.7243721e-39
0.54141057 0.0027351333 0.6548242 8.7243721e-39
0.53470582 0.014896387 0.65506542 8.7243721e-39
0.52801633 0.026858538 0.65493107 8.7243721e-39
0.5306474 0.022112966 0.65524262 8.7243721e-39
0.52380401 0.0345691 0.65522349 8.7243721e-39
0.52457219 0.043883327 0.65515631 8.7243721e-39
0.53137106 0.049766421 0.65499312 8.7243721e-39
0.53619564 0.05386579 0.65495056 8.7243721e-39
0.54251581 0.058943961 0.65518296 8.7243721e-39
0.54796797 0.062023204 0.65612173 8.7243721e-39
0.55391288 0.064895973 0.65342408 8.7247323e-39
0.56538534 0.068635345 0.65145302 8.9105641e-39
0.56979525 0.070462026 0.65098411 8.7247323e-39
0.57420731 0.072300218 0.6505543 9.1947138e-39
0.64558387 0.10902232 0.65513158 1.0972002e-38
0.65096378 0.10674639 0.65380138 1.0787969e-38
0.63552058 0.11603983 0.65476215 8.6660291e-39
0.64176446 0.11200451 0.65569752 1.1616649e-38
0.62690824 0.12577064 0.65505058 1.4747489e-39
0.63056761 0.12082341 0.65503192 1.8403113e-40
0.62234426 0.1347013 0.65510678 1.6591374e-39
0.61980319 0.14706355 0.65558678 1.0786889e-38
0.62104803 0.14213397 0.65528858 2.4892806e-39
0.61971027 0.1505717 0.65606153 1.1708845e-38
0.62352258 0.15522629 0.65546614 1.2077628e-38
0.45807633 0.19951364 0.65588218 7.7480525e-39
0.46512139 0.19952506 0.65399659 7.0075937e-39
0.44912955 0.2088424 0.65509915 6.6424322e-39
0.4529908 0.20382634 0.65602124 6.826822e-39
0.44490802 0.21523631 0.65492964 6.1821757e-39
0.4370769 0.22615716 0.65500003 6.3662054e-39
0.44070634 0.22120066 0.65536541 6.1821757e-39
0.42946798 0.23877019 0.65189075 6.1821757e-39
0.43180403 0.23441957 0.65498877 6.7349865e-39
0.61719489 0.2384942 0.65440321 9.1369354e-39
0.62251204 0.23635757 0.65572548 8.767804e-39
0.42850459 0.24475218 0.65458995 6.4583997e-39
0.43033093 0.24062383 0.65457892 6.1821757e-39
0.60708708 0.24693391 0.654881 8.3064685e-39
0.61313552 0.24190107 0.65553898 9.1372942e-39
0.42852491 0.25034192 0.65494633 6.0878067e-39
0.43226385 0.25341609 0.65599108 5.8097708e-39
0.59727234 0.25740835 0.65463579 8.3064685e-39
0.6021716 0.25229037 0.65494192 8.3064685e-39
0.58737743 0.26740879 0.65574038 8.4901493e-39
0.59223104 0.26249969 0.65474981 8.3064685e-39
0.57769459 0.27755919 0.65490788 9.1337447e-39
0.58245295 0.27259517 0.65488112 9.9617369e-39
0.56798249 0.28786522 0.65495807 8.4901479e-39
0.57280076 0.28261775 0.65518534 8.3064685e-39
0.55802995 0.2982305 0.65511292 9.8695371e-39
0.56306988 0.29369169 0.65512067 9.1341034e-39
0.55408776 0.30500978 0.6551795 8.7660271e-39
0.54625404 0.31511241 0.65525651 7.7522269e-39
0.55020756 0.31011707 0.65308213 8.3064685e-39
0.54556793 0.32510585 0.65494615 3.7745936e-39
0.54890072 0.33115041 0.65485239 6.1727688e-39
0.54818207 -0.33242506 0.6650874 2.3060286e-39
0.54833114 -0.32539499 0.66548604 2.7677606e-39
0.54894453 -0.31472942 0.66585994 2.8599577e-39
0.55026871 -0.31047779 0.6688574 2.8599577e-39
0.54986829 -0.30952147 0.66283238 2.8599577e-39
0.55178499 -0.30462247 0.66514575 2.8599577e-39
0.55480629 -0.29488426 0.66508889 3.1361816e-39
0.56365448 -0.29044911 0.66071236 9.4043368e-39
0.55643249 -0.28475356 0.66479903 8.8511714e-39
0.55774033 -0.27508572 0.66504115 9.0326424e-39
0.55908746 -0.26528296 0.66475642 6.8170606e-39
0.56016153 -0.26096654 0.66887599 5.9836944e-39
0.55976421 -0.25869673 0.66219252 6.5404737e-39
0.56081927 -0.25410345 0.66519606 5.892219e-39
0.56214553 -0.24493729 0.66516066 5.800022e-39
0.56342024 -0.23529167 0.66505539 5.9847748e-39
0.56477183 -0.22473565 0.66504216 6.5397534e-39
0.56556851 -0.21489584 0.66468859 7.4642349e-39
0.56652373 -0.20447695 0.66528106 1.1155311e-38
0.5681721 -0.19505037 0.66462404 6.1782451e-39
0.5696913 -0.18866667 0.66630721 2.8599577e-39
0.57110286 -0.18405007 0.66502661 2.8599577e-39
0.57432312 -0.1747608 0.66509634 2.8599577e-39
0.57810724 -0.16770686 0.66584182 2.8599577e-39
0.58347642 -0.16376507 0.66588891 2.9521561e-39
0.59220302 -0.16426222 0.66465008 5.0719143e-39
0.58779764 -0.071287006 0.66360354 1.1944377e-38
0.59088808 -0.071514785 0.66367042 1.086252e-38
0.56507677 -0.060053091 0.66485691 8.7243721e-39
0.5777241 -0.063077673 0.66740239 6.6121557e-39
0.58169556 -0.068323411 0.66820741 9.0981965e-39
0.57285964 -0.054187916 0.66565508 6.3366492e-39
0.56757128 -0.044428069 0.66525376 7.5305107e-39
0.57019156 -0.048939317 0.66107899 7.8978527e-39
0.55962181 -0.030358821 0.66565621 8.7243721e-39
0.5624373 -0.035280425 0.66479927 8.7243721e-39
0.55632305 -0.024838759 0.6648317 8.7243721e-39
0.54898942 -0.011448978 0.66457027 8.7243721e-39
0.55174166 -0.016324634 0.66483551 8.7243721e-39
0.54568094 -0.005304168 0.66510761 8.7243721e-39
0.53901076 0.0069499649 0.6652196 8.7243721e-39
0.54164368 0.0021457335 0.6647082 8.7243721e-39
0.5346306 0.014701623 0.66502684 8.7243721e-39
0.52805495 0.02629165 0.66510552 8.7243721e-39
0.5307191 0.021528175 0.66441154 8.7243721e-39
0.5240072 0.03554672 0.66577172 8.7243721e-39
0.52367866 0.043895394 0.66530144 8.7243721e-39
0.53053701 0.049577139 0.66281873 8.7247323e-39
0.53598207 0.054273181 0.66375053 8.7247323e-39
0.54179549 0.058699738 0.66450357 8.7243721e-39
0.54743785 0.06189825 0.66477591 8.7243721e-39
0.55425978 0.065683059 0.66467953 8.7243721e-39
0.56200171 0.069178022 0.66297776 8.7243721e-39
0.56698519 0.071451992 0.66522533 8.8194488e-39
0.63552189 0.10916588 0.66641158 9.1259296e-39
0.6471768 0.10829163 0.6655184 1.1156752e-38
0.63522261 0.11604413 0.66504079 8.9422558e-39
0.64152855 0.11151316 0.66457725 1.1616649e-38
0.62662548 0.12555799 0.66523534 2.0268409e-39
0.63076437 0.12029377 0.66267008 3.6842098e-40
0.6216948 0.13554388 0.66525394 2.5785741e-39
0.61978364 0.14766246 0.66418982 9.5883455e-39
0.62019849 0.14348033 0.66704214 4.9724431e-39
0.63050091 0.14293347 0.66898078 1.4935692e-38
0.61951447 0.15122192 0.66336888 1.1709205e-38
0.62255657 0.15442953 0.66543967 1.2077628e-38
0.4592348 0.19954565 0.66490269 8.0246351e-39
0.46419263 0.19898361 0.66804105 8.1153832e-39
0.44910368 0.20845367 0.66514611 7.9320822e-39
0.45367783 0.20367654 0.6650787 6.8271808e-39
0.44486028 0.21510071 0.66498351 5.5371748e-39
0.43709618 0.22606713 0.66513246 3.971661e-39
0.44077906 0.22103666 0.66564804 2.7734864e-39
0.42937693 0.23855864 0.66571409 7.7480539e-39
0.43175569 0.23357277 0.665335 7.2874372e-39
0.61743408 0.23927985 0.66596615 8.3064685e-39
0.62236315 0.23667102 0.66564023 8.4897934e-39
0.42881486 0.24471018 0.66570199 6.4584011e-39
0.43044597 0.24869394 0.66544485 5.8126659e-39
0.60717696 0.24737218 0.66519254 8.3064685e-39
0.61290568 0.24249963 0.66568333 8.3064685e-39
0.43306592 0.25390565 0.6644367 5.7175738e-39
0.59735847 0.25721589 0.66480809 8.3064685e-39
0.60217535 0.25218016 0.66508675 8.3064685e-39
0.58735186 0.26736906 0.66560662 8.9500625e-39
0.59225923 0.26244777 0.66475105 8.3064685e-39
0.57759565 0.27764079 0.66484731 8.9500653e-39
0.58234912 0.27258638 0.66513354 8.8582256e-39
0.56794536 0.28813499 0.66454411 8.3983068e-39
0.57274967 0.28324088 0.66524565 8.3064713e-39
0.55890822 0.29862809 0.66499269 9.4099812e-39
0.56295997 0.29371318 0.66478592 9.3177814e-39
0.54984754 0.30960196 0.66941696 8.3064685e-39
0.55399793 0.3047308 0.66508836 8.3064713e-39
0.5460462 0.31468031 0.6651237 7.7525871e-39
0.54347938 0.32451794 0.66687268 4.1426544e-39
0.54430187 0.33057553 0.66899204 7.6475387e-39
0.54869676 -0.33158877 0.67515612 2.0294543e-39
0.55006588 -0.33297271 0.67948222 1.2918683e-39
0.54868013 -0.32507664 0.67503875 2.7677606e-39
0.54921734 -0.31589997 0.67466176 2.8599577e-39
0.55034673 -0.3110306 0.67468888 2.8599577e-39
0.55231082 -0.30489597 0.67502391 2.8599577e-39
0.55537832 -0.29513559 0.67510998 6.1782451e-39
0.55738366 -0.28501031 0.67499661 1.1708845e-38
0.55880016 -0.27483478 0.67513549 9.9546015e-39
0.56650651 -0.27080333 0.67717475 1.1524094e-38
0.5589152 -0.26752558 0.67358643 6.1691702e-39
0.56051242 -0.26389748 0.67605412 6.0769704e-39
0.56178564 -0.2550835 0.67480338 5.8918575e-39
0.55951965 -0.24970669 0.67845052 8.385831e-39
0.56349128 -0.24500044 0.67501551 5.8914988e-39
0.56513757 -0.2347164 0.67489707 5.983693e-39
0.5664084 -0.22498776 0.67483789 5.8914988e-39
0.56736696 -0.21491903 0.67536497 6.169166e-39
0.56799304 -0.20518848 0.67478603 1.115495e-38
0.56889313 -0.19477345 0.67470777 7.0079973e-39
0.57019377 -0.19109376 0.67925012 2.9517932e-39
0.56965888 -0.18852045 0.67220408 2.8599577e-39
0.57210255 -0.18460256 0.6755501 2.8599577e-39
0.57637036 -0.17501979 0.67512667 2.8599577e-39
0.57935464 -0.16852739 0.67360491 2.8599577e-39
0.5812031 -0.16474758 0.67524213 2.8599577e-39
0.58657289 -0.070997611 0.67574853 8.1034918e-39
0.57839686 -0.06162262 0.6730364 6.7958267e-39
0.58253652 -0.066570625 0.6743772 6.6132361e-39
0.5736779 -0.055051465 0.67448103 6.7958267e-39
0.56748742 -0.044814434 0.674972 8.6325366e-39
0.57031733 -0.049796015 0.67523968 8.5407011e-39
0.5597012 -0.030993989 0.67637604 8.7243721e-39
0.5624944 -0.035931334 0.67499274 8.7243721e-39
0.55628359 -0.024841938 0.67516822 8.7243721e-39
0.54893756 -0.011750765 0.6755476 8.7243721e-39
0.55159634 -0.016480261 0.67470723 8.7243721e-39
0.54513472 -0.0047540721 0.67493522 8.7243721e-39
0.53875065 0.0070703663 0.67514956 8.7243721e-39
0.54125512 0.0024503255 0.67472976 8.7243721e-39
0.53436422 0.01506441 0.67488587 8.7243721e-39
0.52825469 0.025728889 0.67473793 8.7243721e-39
0.53080332 0.021219779 0.67555094 8.7243721e-39
0.52520066 0.035119195 0.67430925 8.9084033e-39
0.52528769 0.045359183 0.67600697 9.6427271e-39
0.52823985 0.050783161 0.6764704 9.7345626e-39
0.53457278 0.054531377 0.67562068 9.0005989e-39
0.54259104 0.059049036 0.67517895 8.7250924e-39
0.54677731 0.061565828 0.67478591 8.7247323e-39
0.55418456 0.065922529 0.67495161 8.7254525e-39
0.56303281 0.069393098 0.67294061 8.7250924e-39
0.56803793 0.07125026 0.67168814 8.8162076e-39
0.57024837 0.071251065 0.6740396 9.0963959e-39
0.64486998 0.10899321 0.67626429 1.078761e-38
0.65035564 0.10721404 0.67399287 1.1893596e-38
0.63463324 0.11621239 0.67525178 9.6722623e-39
0.64135426 0.1110035 0.67417341 1.1524454e-38
0.62673229 0.12543298 0.67451411 5.8778445e-39
0.63019419 0.12088136 0.67752028 6.2448292e-39
0.62193251 0.13471024 0.6750958 6.0611568e-39
0.61935627 0.14508392 0.67851764 9.9492107e-39
0.62036777 0.14448322 0.67392474 8.3754054e-39
0.61981553 0.15020531 0.67798454 1.1708845e-38
0.62259001 0.15423745 0.67508548 1.1708486e-38
0.45925796 0.19977061 0.67717808 8.3926946e-39
0.46121207 0.19888532 0.67540914 9.3139278e-39
0.44927809 0.20872155 0.6745531 6.1821757e-39
0.45370489 0.20384552 0.67522174 7.0112119e-39
0.44511107 0.2150379 0.67478377 4.5201502e-39
0.43706509 0.22629771 0.67534292 2.4911471e-39
0.44090313 0.22116354 0.67413533 2.3982326e-39
0.42970535 0.23864567 0.67216247 6.1821757e-39
0.4317528 0.23454072 0.67520279 6.181817e-39
0.61804104 0.23855659 0.67436111 8.8603527e-39
0.62195057 0.2369853 0.67729533 9.5050075e-39
0.42951369 0.24478394 0.67428923 6.1821757e-39
0.43020025 0.24216439 0.67672092 6.1821757e-39
0.6072498 0.2471572 0.675318 8.3064685e-39
0.61366701 0.24215387 0.67615741 8.859994e-39
0.42961499 0.25030375 0.6763612 6.4573136e-39
0.4330323 0.25419307 0.67462319 6.3625831e-39
0.59748507 0.25730786 0.67492974 8.3064685e-39
0.60223025 0.25229815 0.67506337 8.3064685e-39
0.58760011 0.2674154 0.67520732 8.8582242e-39
0.59250426 0.2623806 0.67478824 8.3064685e-39
0.5776307 0.27767989 0.67502731 8.5823463e-39
0.58261818 0.27258259 0.67495441 9.3181415e-39
0.56797636 0.28785831 0.67469239 8.3983096e-39
0.57263267 0.28291777 0.67508429 8.3064685e-39
0.55855387 0.29862541 0.67590797 8.3064685e-39
0.5628975 0.29354265 0.6748364 9.6858577e-39
0.54957652 0.309589 0.6762619 8.3064685e-39
0.55343407 0.3049331 0.67489892 8.3064685e-39
0.54576451 0.31473377 0.67467242 7.2901838e-39
0.54566824 0.32466048 0.67261076 5.0624429e-39
0.55040348 0.32841891 0.67128456 5.0602793e-39
0.5481804 0.33065116 0.67938662 7.0954496e-39
0.55184263 -0.33331096 0.68432641 2.3060258e-39
0.5495221 -0.32364094 0.68317246 2.8599577e-39
0.55065793 -0.32629815 0.68509769 2.7677606e-39
0.54927683 -0.31603393 0.68434459 2.8599577e-39
0.55040801 -0.31174225 0.68640816 2.8599577e-39
0.55249 -0.3049925 0.6852299 2.8599577e-39
0.55589306 -0.29489926 0.68495286 7.0079973e-39
0.55815399 -0.28513759 0.68518871 1.1801041e-38
0.55941463 -0.27671361 0.68463576 1.1708845e-38
0.56024253 -0.27168527 0.68599492 1.1708845e-38
0.561216 -0.26470032 0.68490398 1.0970557e-38
0.56276292 -0.25496149 0.685076 9.5858176e-39
0.56443012 -0.24490124 0.68483585 9.031562e-39
0.56617332 -0.23534274 0.68499577 9.0312018e-39
0.56784087 -0.22493421 0.68475777 9.4932618e-39
0.56888443 -0.21461791 0.68532854 1.1247505e-38
0.56933892 -0.20523983 0.68404931 1.1708845e-38
0.5702213 -0.20333649 0.68895626 1.1708845e-38
0.56963122 -0.19679692 0.68200099 1.0695063e-38
0.57055151 -0.19427601 0.68605566 4.887879e-39
0.5724687 -0.18518262 0.68558127 2.8599577e-39
0.57538074 -0.17508511 0.68615514 2.8599577e-39
0.57840019 -0.16759714 0.68610394 2.8599577e-39
0.58350271 -0.16324219 0.68578631 3.2287388e-39
0.59151411 -0.16389421 0.68981957 3.1361914e-39
0.58512682 -0.070744261 0.6844821 1.1154591e-38
0.57803333 -0.062353346 0.6861546 8.8324136e-39
0.58167213 -0.067295231 0.68635136 8.3800745e-39
0.57323849 -0.055108845 0.68527627 8.551145e-39
0.56729668 -0.044988804 0.68472046 9.2836682e-39
0.55961269 -0.03150763 0.68628907 9.9369605e-39
0.56241399 -0.036330555 0.68498421 9.4702202e-39
0.55638695 -0.025606105 0.68479198 6.6179515e-39
0.54866648 -0.011804893 0.68513978 5.7918048e-39
0.55184048 -0.017466439 0.68517536 5.8836375e-39
0.5446372 -0.0045414236 0.68503612 5.6084967e-39
0.53844798 0.0071900152 0.68498135 1.0030957e-38
0.5409115 0.002473444 0.68511868 7.9122818e-39
0.53428125 0.015005237 0.68500853 1.0216787e-38
0.5280962 0.025860664 0.68490124 1.0309703e-38
0.53080356 0.02122616 0.68584251 1.0496975e-38
0.52346981 0.034870382 0.68522584 1.0589171e-38
0.52703559 0.044917736 0.68412566 1.0393977e-38
0.53130686 0.048805103 0.68132865 9.9200343e-39
0.53575134 0.053911284 0.68401825 9.8408034e-39
0.54224175 0.058725283 0.68591201 8.8396163e-39
0.54644817 0.061223079 0.6854881 8.8388961e-39
0.55410129 0.065793961 0.68544775 9.2987938e-39
0.56297511 0.07094384 0.68836242 1.1149548e-38
0.64617789 0.10881686 0.68497145 1.0695415e-38
0.63553834 0.11575685 0.68509012 1.05971e-38
0.6412791 0.11100531 0.68533975 1.1524814e-38
0.62692016 0.12569614 0.6846332 6.2448278e-39
0.63060445 0.12067503 0.68542337 6.2451879e-39
0.6220637 0.13505186 0.68488497 6.2451879e-39
0.6195094 0.14577627 0.68414086 1.0135041e-38
0.62033254 0.14227083 0.68852997 7.3562158e-39
0.61966324 0.15123893 0.6845032 1.1708845e-38
0.62397754 0.15528408 0.68588573 1.1708845e-38
0.63073641 0.15949285 0.68072343 1.1247867e-38
0.46320304 0.19895822 0.68414742 8.2083047e-39
0.44933972 0.20885299 0.68541682 7.1956018e-39
0.45467728 0.20375967 0.68491316 7.1034075e-39
0.4606913 0.20043097 0.68718129 6.6427923e-39
0.44523275 0.21483667 0.68504649 5.4410177e-39
0.43717137 0.22586709 0.68505657 3.0428748e-39
0.44079298 0.22107062 0.68438882 2.6737363e-39
0.42962736 0.23952149 0.6843558 8.1164734e-39
0.43222412 0.23430309 0.68498588 7.4714684e-39
0.61923665 0.23926318 0.68626022 8.3064685e-39
0.62345028 0.23731327 0.68420821 8.3043385e-39
0.42859674 0.24394615 0.68501443 7.378907e-39
0.43057337 0.2490627 0.68542087 6.1785533e-39
0.60726506 0.2478047 0.68437618 8.3064685e-39
0.61419302 0.24283378 0.6855942 8.3068272e-39
0.43345988 0.25348544 0.68458498 6.3622201e-39
0.59747297 0.25734472 0.68493342 8.3064685e-39
0.60242802 0.25226164 0.6850186 8.3064685e-39
0.58750486 0.26764619 0.68479586 8.8578654e-39
0.59241617 0.26253441 0.68494761 8.3064685e-39
0.57766724 0.27751791 0.68505907 8.3064685e-39
0.582564 0.27243033 0.68529022 9.31778e-39
0.5678435 0.2874186 0.68481851 8.3064699e-39
0.57263666 0.28289589 0.68490189 8.3064685e-39
0.55854946 0.29844642 0.68545449 8.3064685e-39
0.56282574 0.29350033 0.68506306 8.3983096e-39
0.54952526 0.30936426 0.68593264 8.3064685e-39
0.55371058 0.30437887 0.68480319 8.3064685e-39
0.54587096 0.31475711 0.68511194 8.2135582e-39
0.54588747 0.32435593 0.68589073 5.3454828e-39
0.54742473 0.33054528 0.68548781 4.1422957e-39
0.55068076 -0.33212629 0.69502562 2.5830037e-39
0.54979247 -0.32374898 0.69583005 2.8599577e-39
0.55021971 -0.32675534 0.69525445 2.8595975e-39
0.54957849 -0.31811672 0.69356918 2.8599577e-39
0.55105281 -0.31383544 0.69584292 2.8599577e-39
0.55353856 -0.30504721 0.6948235 2.8599577e-39
0.55649209 -0.29503325 0.69481844 5.5328827e-39
0.55886686 -0.28518194 0.69466418 1.1708845e-38
0.56017202 -0.28093186 0.69856781 1.1801041e-38
0.55840075 -0.27700892 0.69254524 1.0237325e-38
0.56087291 -0.27423289 0.69573635 1.1801041e-38
0.56217951 -0.26527593 0.69478983 1.1801041e-38
0.56384599 -0.25514451 0.69519496 1.1801041e-38
0.56546867 -0.24493553 0.69504035 1.1801041e-38
0.56707007 -0.23466581 0.69501668 1.1801041e-38
0.56854117 -0.22501142 0.69486296 1.1708845e-38
0.56963044 -0.21678711 0.69340187 1.1616651e-38
0.57042712 -0.21342441 0.69680393 1.0695063e-38
0.5711382 -0.20475139 0.69517821 9.1277541e-39
0.57193565 -0.19488488 0.69500619 3.0439874e-39
0.56612533 -0.18764454 0.69918299 2.7756668e-39
0.57392019 -0.18469308 0.69484091 2.8599577e-39
0.57719636 -0.17498153 0.69419521 2.8599577e-39
0.5793975 -0.16870053 0.6926502 2.8599577e-39
0.58192545 -0.16553946 0.69469273 2.8599577e-39
0.59545887 -0.16445041 0.69013751 3.9659381e-39
0.58756566 -0.071037211 0.69477308 1.1706684e-38
0.59115744 -0.070672698 0.69897622 1.2724077e-38
0.57871258 -0.061414301 0.69423378 1.2814831e-38
0.5837599 -0.066369869 0.69557017 1.1800315e-38
0.57342541 -0.054300431 0.69553399 1.2630078e-38
0.61365855 -0.05844669 0.69888234 1.3368366e-38
0.5674938 -0.044358332 0.69518459 1.2077265e-38
0.57039922 -0.048480511 0.6991629 1.3552753e-38
0.55943221 -0.031226989 0.69283134 1.1616647e-38
0.56252408 -0.035153154 0.69627243 1.2354213e-38
0.55659759 -0.02490822 0.69546956 3.4131287e-39
0.56028622 -0.029033259 0.69925487 1.456691e-38
0.54893893 -0.012384173 0.69301265 2.8599577e-39
0.55223 -0.01623787 0.69634604 2.8599577e-39
0.62551445 -0.016945321 0.69913131 1.4566907e-38
0.54589808 -0.0049378206 0.6957714 2.9521575e-39
0.55017078 -0.0099062137 0.69956684 2.8599577e-39
0.53894526 0.0077147144 0.69426471 1.1063474e-38
0.54177445 0.0035761977 0.69645774 8.3905534e-39
0.53543824 0.015095996 0.69556165 1.0602496e-38
0.52872872 0.02694295 0.69397986 1.0694332e-38
0.53146082 0.022970468 0.69652236 9.7727354e-39
0.52550232 0.035031687 0.6951226 1.0049324e-38
0.52566606 0.044456501 0.69492531 1.1339698e-38
0.5306794 0.048830062 0.69739205 1.1616284e-38
0.53535956 0.053343296 0.69547331 1.0417745e-38
0.54289907 0.057644803 0.69716972 9.3117586e-39
0.54732865 0.060787864 0.69545954 9.0351717e-39
0.55528539 0.065160103 0.69469869 1.0325911e-38
0.56544226 0.068027869 0.69645286 1.3552395e-38
0.573825 0.06882903 0.69994217 1.5581057e-38
0.56690419 0.071062371 0.69225293 1.364459e-38
0.5730539 0.070856266 0.6959089 1.3736785e-38
0.64734429 0.1086484 0.69461358 1.0879806e-38
0.63550866 0.11618292 0.69496423 1.1523375e-38
0.64238733 0.11105882 0.6953885 1.1709205e-38
0.6270811 0.12603359 0.69489658 1.0411987e-38
0.63072997 0.12107694 0.69380742 9.9488506e-39
0.62253857 0.1345676 0.69511884 1.078293e-38
0.61974174 0.14733498 0.69507289 1.1708845e-38
0.62041771 0.14277922 0.69585919 1.1523375e-38
0.61956805 0.15078789 0.69340467 1.1801041e-38
0.62389594 0.1556199 0.69652593 1.1708845e-38
0.46335369 0.19936734 0.69478768 8.4848916e-39
0.44929489 0.20916122 0.69423026 6.1821757e-39
0.45398846 0.20474339 0.69552952 6.1818128e-39
0.4616527 0.20036824 0.69495142 7.1952388e-39
0.4453674 0.21505329 0.69529164 5.8130372e-39
0.43755424 0.22627029 0.69511926 5.4438988e-39
0.44092953 0.22134155 0.69544894 5.2598677e-39
0.42973936 0.23885943 0.69468766 6.1821757e-39
0.43244487 0.23380369 0.69561166 6.0899801e-39
0.61782885 0.23847124 0.69600034 8.490857e-39
0.62390161 0.23711629 0.69597673 9.5947242e-39
0.42910904 0.24331696 0.69465178 6.1814512e-39
0.4308795 0.24855714 0.69633734 6.0878095e-39
0.60720026 0.24690066 0.6958093 8.3064685e-39
0.61340618 0.24206731 0.6942029 8.3064685e-39
0.43483478 0.25428218 0.69561517 5.9016049e-39
0.59716374 0.25726309 0.69502753 8.3064685e-39
0.60216439 0.25213903 0.69491941 8.3064685e-39
0.44577089 0.26093811 0.69679815 7.5604018e-39
0.58734077 0.26738286 0.69508791 8.3064699e-39
0.59218091 0.26241964 0.69527406 8.3064685e-39
0.57776678 0.27738309 0.69499111 8.3064685e-39
0.58230656 0.27261156 0.69504207 8.3064685e-39
0.56788522 0.28803647 0.69525129 8.3064685e-39
0.57267457 0.28279626 0.69500846 8.3064685e-39
0.55886018 0.2982994 0.69501084 8.3064685e-39
0.5629465 0.29353118 0.69499308 8.3064685e-39
0.54965961 0.30932015 0.69145674 8.5834099e-39
0.55370164 0.30467141 0.69492835 8.5823323e-39
0.54867107 0.31531501 0.69299859 9.3206064e-39
0.55078208 0.31292132 0.69450516 9.3206064e-39
0.54777837 0.32456723 0.69274491 8.9507561e-39
0.55242747 -0.33294863 0.70661116 2.3982256e-39
0.55093324 -0.32490146 0.70517182 2.7681194e-39
0.55181491 -0.31513903 0.70521075 2.8599577e-39
0.55425477 -0.3048397 0.70523173 2.8606751e-39
0.55713487 -0.29470661 0.70505226 4.888958e-39
0.55928165 -0.28699335 0.70428556 1.1341144e-38
0.560615 -0.28256243 0.7059046 1.106528e-38
0.56195498 -0.27522424 0.7048983 1.106528e-38
0.56370449 -0.26490316 0.70490539 1.1157116e-38
0.56533945 -0.25488514 0.70520544 1.124931e-38
0.56667632 -0.24501762 0.70491236 1.1525175e-38
0.56801635 -0.23511901 0.70492899 1.1617011e-38
0.56933206 -0.22539134 0.70452178 1.0787259e-38
0.57022196 -0.22164547 0.70775926 4.2428767e-39
0.57101017 -0.21467136 0.70539641 3.3209302e-39
0.57233161 -0.20532592 0.70464206 2.8599577e-39
0.57384801 -0.1949445 0.70527697 2.8599577e-39
0.57598805 -0.18484215 0.70498133 2.8599577e-39
0.57806295 -0.17544554 0.70476365 2.8599577e-39
0.58042437 -0.1725155 0.70873755 2.8599577e-39
0.57915252 -0.16854033 0.70303303 2.8599577e-39
0.5842275 -0.16523071 0.70521247 2.8603178e-39
0.59112877 -0.16159196 0.70786691 4.1503252e-39
0.59356093 -0.075591281 0.7011984 1.0962275e-38
0.57942235 -0.060094602 0.70059359 1.244641e-38
0.58567381 -0.062873378 0.70373106 1.2446407e-38
0.59341961 -0.064344123 0.70475984 1.6686683e-38
0.60023385 -0.061199576 0.7056337 1.4842409e-38
0.57675803 -0.053713281 0.70236486 1.3921177e-38
0.58449185 -0.054538678 0.7056368 1.7332774e-38
0.59496981 -0.055134825 0.70683259 1.5673257e-38
0.60453546 -0.054112166 0.70641768 1.5120083e-38
0.61489075 -0.052508127 0.7036553 1.5027888e-38
0.62254429 -0.052281886 0.70121264 1.5488866e-38
0.56886894 -0.041969802 0.70103902 1.3091777e-38
0.57441968 -0.044654381 0.70310891 1.677924e-38
0.58490276 -0.045143172 0.70497721 1.6963993e-38
0.59592599 -0.045143005 0.70572156 1.4935692e-38
0.60481209 -0.044675525 0.70636296 1.5027888e-38
0.61445916 -0.044831332 0.7064271 1.7609363e-38
0.62472236 -0.045028232 0.70494026 1.8162176e-38
0.63163018 -0.041963525 0.7035082 1.8254373e-38
0.56649631 -0.034276076 0.70214617 1.4105936e-38
0.57514232 -0.035007231 0.70452577 1.8254372e-38
0.58501905 -0.035222687 0.70525682 1.539667e-38
0.59475023 -0.035092421 0.70560545 1.4935692e-38
0.60504335 -0.034589514 0.70600188 1.6410822e-38
0.61461025 -0.035179339 0.70642471 1.9084491e-38
0.62412834 -0.03533921 0.70710433 1.9452915e-38
0.63213587 -0.037700653 0.70535648 1.7424611e-38
0.55845952 -0.023240188 0.7012912 4.7964443e-39
0.56488419 -0.025188958 0.70365775 9.5898687e-39
0.57514763 -0.025412939 0.70567065 1.6042044e-38
0.58533698 -0.024929177 0.7057206 1.5304475e-38
0.59490305 -0.024643095 0.70568115 1.5212279e-38
0.60447031 -0.024872893 0.7059167 1.8438763e-38
0.61411476 -0.025629763 0.70698076 1.9176328e-38
0.62368089 -0.026200363 0.70466322 1.7793392e-38
0.55629462 -0.014878862 0.70272797 3.8748635e-39
0.564592 -0.01509685 0.70570683 4.612451e-39
0.57448411 -0.014997534 0.70640141 6.0872111e-39
0.58507484 -0.014677873 0.70617527 1.1617427e-38
0.59561616 -0.015003437 0.70608115 1.7424973e-38
0.60582578 -0.015301951 0.70657885 1.9360721e-38
0.61451167 -0.015566329 0.70653325 1.9176329e-38
0.62217343 -0.019203426 0.70285738 1.806962e-38
0.54867834 -0.0031920178 0.70123917 3.6901065e-39
0.55427605 -0.0053909863 0.70461476 4.0589002e-39
0.5643332 -0.0046309228 0.7066077 4.8890477e-39
0.57452875 -0.0048639476 0.7064926 4.8890463e-39
0.58492726 -0.0051024472 0.70634902 4.8894064e-39
0.59537071 -0.0053384602 0.70636588 8.4839163e-39
0.60482764 -0.0057070488 0.70673782 1.6872191e-38
0.612486 -0.0058547249 0.70584071 1.6134991e-38
0.54619628 0.005446461 0.70306885 9.2203197e-39
0.55451304 0.0047821724 0.70623165 4.7050067e-39
0.56446129 0.0047646509 0.7064504 4.889405e-39
0.5745762 0.0046158847 0.70643556 4.8890463e-39
0.58491176 0.0044635818 0.70636737 4.8894064e-39
0.59543669 0.0051127202 0.70628959 4.8890463e-39
0.60444045 0.0043512117 0.7062431 5.0734361e-39
0.6115458 0.0032193763 0.70374858 7.1931607e-39
0.53808796 0.017001135 0.70203054 1.1524454e-38
0.54468179 0.014754334 0.70451653 1.5304843e-38
0.55501884 0.015002683 0.70583838 9.313286e-39
0.56475317 0.014945633 0.70609206 5.1659863e-39
0.57468122 0.014887222 0.70630866 4.8890449e-39
0.58485335 0.014826541 0.70643622 4.8890463e-39
0.59529346 0.015428172 0.70628715 4.9812419e-39
0.60329962 0.014441081 0.70455909 6.1793913e-39
0.52999073 0.028875988 0.70080161 8.9429761e-39
0.53532052 0.025305256 0.70263457 1.5765453e-38
0.54504859 0.025086217 0.70485526 1.5488866e-38
0.55518746 0.025111271 0.7056281 1.5027888e-38
0.56494421 0.025136713 0.70585805 1.3368753e-38
0.57468873 0.025161343 0.70629936 8.0229368e-39
0.58472675 0.025187189 0.706586 4.8890463e-39
0.59368181 0.02449744 0.70614904 7.2853787e-39
0.52807373 0.036137201 0.70195007 1.382898e-38
0.53468353 0.034932222 0.70406801 1.6963996e-38
0.54517066 0.03499987 0.70500922 1.4935692e-38
0.55530804 0.035225242 0.70547742 1.5027888e-38
0.56493682 0.034724012 0.70570856 1.5673257e-38
0.57482225 0.034648936 0.70613897 1.9268522e-38
0.58456433 0.034509122 0.70602167 1.4567676e-38
0.59209889 0.034051031 0.70403934 1.6225348e-38
0.52759153 0.042783853 0.7020157 1.4197764e-38
0.53444058 0.045196418 0.70378 1.5212278e-38
0.54507083 0.045146331 0.70482832 1.4843496e-38
0.55513495 0.045330763 0.70569307 1.4935692e-38
0.56493914 0.044874094 0.70600861 1.8346928e-38
0.57495898 0.044641923 0.70551479 1.9913523e-38
0.58359468 0.044886529 0.70436519 1.8899738e-38
0.59051561 0.04091673 0.70239514 1.1985844e-38
0.5373112 0.051511396 0.70142472 1.2169822e-38
0.54541695 0.05383791 0.7029928 1.2815193e-38
0.55471593 0.05500764 0.7053268 1.4013736e-38
0.56461674 0.055038687 0.70710444 1.9360719e-38
0.57505971 0.054672856 0.7060504 2.0374867e-38
0.58360124 0.054472253 0.70258969 1.8623514e-38
0.54956049 0.060088281 0.70034283 1.1985432e-38
0.55585212 0.061772384 0.70306689 1.1708845e-38
0.5647645 0.063264303 0.7051906 1.6134234e-38
0.57350719 0.064072475 0.704853 1.6963994e-38
0.64941961 0.10884217 0.70140159 1.2539327e-38
0.63633358 0.11659262 0.70456368 1.1801041e-38
0.6445573 0.11200213 0.7056247 1.3184337e-38
0.65412295 0.11248329 0.70663422 1.687216e-38
0.62771946 0.12646811 0.70505255 1.180032e-38
0.63119221 0.12164798 0.70537823 1.1801041e-38
0.62339616 0.135296 0.70517457 1.1801041e-38
0.62194598 0.14568432 0.70533741 1.2722997e-38
0.6245755 0.15343535 0.70499015 1.3368366e-38
0.63219911 0.15594321 0.70650458 1.3829344e-38
0.45518345 0.20597769 0.70524371 4.6940248e-39
0.46497601 0.20385079 0.70607311 6.2595428e-39
0.47282162 0.2074375 0.70705318 6.9034675e-39
0.44712883 0.21595393 0.70490646 4.2344927e-39
0.45181307 0.21263106 0.708525 4.9684438e-39
0.47588542 0.21280135 0.70816571 7.0874958e-39
0.43834895 0.22779962 0.70397007 4.2348543e-39
0.44277471 0.22395496 0.70644695 4.5092734e-39
0.47506797 0.22563639 0.70935893 6.9020213e-39
0.43444747 0.2351774 0.70566744 4.4174393e-39
0.44323421 0.23141412 0.70972478 4.9691641e-39
0.47172278 0.23479065 0.70707405 7.5502816e-39
0.61573982 0.23886949 0.70514464 9.321684e-39
0.62387699 0.23934288 0.70096046 1.1811674e-38
0.42982781 0.24231139 0.7010234 4.1426572e-39
0.43274802 0.24519549 0.70614213 4.2330466e-39
0.4676798 0.24099943 0.70804501 8.5676873e-39
0.60694838 0.2470437 0.70528895 8.3064685e-39
0.61172205 0.2419239 0.70494473 8.3064685e-39
0.62840182 0.24015129 0.70086104 8.6702876e-39
0.63067836 0.240558 0.70081097 8.8536139e-39
0.43637004 0.25311661 0.70507312 4.4192455e-39
0.44335082 0.25662339 0.70726639 4.4170763e-39
0.45730817 0.25636414 0.70605642 8.1059861e-39
0.59722048 0.25691822 0.70494431 8.3064685e-39
0.60193008 0.25216767 0.70507663 8.3064685e-39
0.44933784 0.26141998 0.700589 8.0202967e-39
0.58726972 0.26728383 0.70499122 8.3064685e-39
0.59214002 0.26218483 0.70521349 8.3064685e-39
0.57770199 0.27736956 0.70512211 8.3064685e-39
0.58239609 0.27238783 0.70497417 8.3064685e-39
0.56796509 0.28795895 0.70493776 8.9496715e-39
0.57263821 0.28287351 0.70518994 8.3983026e-39
0.58414102 0.28536436 0.7056846 9.8649324e-39
0.5586831 0.29882514 0.70484388 8.1149054e-39
0.56306791 0.29353842 0.7050541 8.9467974e-39
0.54978371 0.3096481 0.70377588 3.3190076e-39
0.55372989 0.30471066 0.70511872 8.758512e-39
0.54622012 0.31438476 0.70591122 7.2894649e-39
0.55680877 0.31587937 0.70365947 8.5826925e-39
0.54380763 0.32476646 0.70604187 4.3277534e-39
0.54467732 0.33024377 0.70900875 3.5884003e-39
0.56321126 -0.34112304 0.71673363 4.1503238e-39
0.55612797 -0.33461255 0.71399158 2.6751937e-39
0.56070852 -0.33806601 0.7171098 2.8599605e-39
0.55209321 -0.32500088 0.71474499 2.4004047e-39
0.55342811 -0.31510893 0.71512926 2.7889623e-39
0.55533475 -0.30505663 0.71491927 2.7889623e-39
0.55811471 -0.29511809 0.7151168 2.7896812e-39
0.55957007 -0.28900644 0.71283895 3.2499348e-39
0.56105196 -0.28420874 0.71539354 2.8822355e-39
0.56307894 -0.27470523 0.71498197 2.8822355e-39
0.56496471 -0.26476464 0.71495014 2.8822355e-39
0.56640029 -0.2550483 0.71505302 2.974071e-39
0.56780702 -0.2452037 0.71487099 3.2499362e-39
0.56921631 -0.23517321 0.71489364 3.3421305e-39
0.57012558 -0.23076873 0.71783793 2.7904e-39
0.56916565 -0.22727761 0.71225429 4.6263869e-39
0.57077861 -0.22445045 0.71550113 2.8811565e-39
0.57201028 -0.21526213 0.71492159 2.7871658e-39
0.57340425 -0.20505066 0.71506071 2.7860882e-39
0.57477361 -0.19470876 0.71550727 2.7871658e-39
0.57714593 -0.18511394 0.71497411 2.7839316e-39
0.5791887 -0.17872393 0.71484429 2.7806974e-39
0.58141232 -0.17366181 0.71330589 2.7767458e-39
0.58511692 -0.16638787 0.71373147 2.9561106e-39
0.5946036 -0.16352256 0.71374255 3.8744866e-39
0.60038018 -0.019007552 0.713018 5.1652674e-39
0.58890653 0.032278337 0.71078908 1.3367643e-38
0.63797402 0.11803199 0.71243387 1.1063111e-38
0.6444416 0.11658434 0.71375328 1.5120083e-38
0.65214878 0.11643787 0.7114709 1.9545474e-38
0.62857765 0.12805989 0.71417171 1.1801041e-38
0.63371438 0.12252809 0.71533 1.1432257e-38
0.64263499 0.1204562 0.71954072 1.4475074e-38
0.65159786 0.12066719 0.71495104 1.9361082e-38
0.62684995 0.13513441 0.71476078 1.1893236e-38
0.62665343 0.14430708 0.71349496 1.3552758e-38
0.63342673 0.14724508 0.71610445 1.4382158e-38
0.62798983 0.15181531 0.71029258 1.6595213e-38
0.63385046 0.15182757 0.71250963 1.5673257e-38
0.45805395 0.20874371 0.71057403 5.2446678e-39
0.46423358 0.20891844 0.71136105 5.9811454e-39
0.44951567 0.21854168 0.71044332 4.8766083e-39
0.45567724 0.21532758 0.7121402 5.7045627e-39
0.46471381 0.2151569 0.71334618 6.4406816e-39
0.47278869 0.21617267 0.71199822 6.5328759e-39
0.44690496 0.22629793 0.71148545 5.3365033e-39
0.45488867 0.22473857 0.71394688 6.0726222e-39
0.46488941 0.22467056 0.71390551 6.5328759e-39
0.47208288 0.22398002 0.7115376 6.6247114e-39
0.43834165 0.23690771 0.71094316 5.1524736e-39
0.44479591 0.23492382 0.7128821 5.9807867e-39
0.45440716 0.23501781 0.71422935 6.3488461e-39
0.46393746 0.23437318 0.71251786 6.7172671e-39
0.61686456 0.23881643 0.71459675 8.5830512e-39
0.6250481 0.23778409 0.71541101 7.655428e-39
0.43774101 0.24460588 0.71176118 5.1524736e-39
0.44477582 0.24491577 0.71381688 6.0729809e-39
0.45431757 0.24455802 0.71379501 6.4410404e-39
0.46246067 0.24321583 0.71117914 6.810546e-39
0.60746443 0.24741128 0.71507657 8.3064685e-39
0.61238551 0.24222587 0.71476465 8.3064685e-39
0.43971327 0.2508834 0.71062565 4.9684438e-39
0.44549266 0.25274917 0.71197098 5.520533e-39
0.45401716 0.25211245 0.71157771 6.5339605e-39
0.59720993 0.25724569 0.71463215 8.3064671e-39
0.60264999 0.25219139 0.71458286 8.3064685e-39
0.58722413 0.26699403 0.71489012 8.9493128e-39
0.59250069 0.26232097 0.71518576 8.4901381e-39
0.57749557 0.2776565 0.71486527 8.5762451e-39
0.58212847 0.27251071 0.71530902 8.6694959e-39
0.56833929 0.28777021 0.71483737 9.6804963e-39
0.57272005 0.28294253 0.71502876 8.9429046e-39
0.55899215 0.29851571 0.71490622 1.1063837e-38
0.56332767 0.29345888 0.71505123 1.0141515e-38
0.54961789 0.30948231 0.71499568 4.4282237e-39
0.55412728 0.30437446 0.71516305 8.8507749e-39
0.54621142 0.31454581 0.71476328 5.4448601e-39
0.5454244 0.32514241 0.71412152 3.7742321e-39
0.54582453 0.3309243 0.7136687 5.3419249e-39
0.56646651 -0.34286276 0.72100592 4.1503224e-39
0.55571282 -0.33234468 0.72627223 2.2142113e-39
0.56147945 -0.33795777 0.72099423 2.8599577e-39
0.55341649 -0.32498023 0.7251097 2.307486e-39
0.55475599 -0.31462729 0.72523862 2.7900399e-39
0.55673718 -0.30492279 0.72478563 2.7904e-39
0.55900568 -0.29605219 0.72494274 2.7893224e-39
0.56049681 -0.29133928 0.72635156 2.7904e-39
0.56181556 -0.28518432 0.72489715 2.7904e-39
0.56397098 -0.27506757 0.72500348 2.7904e-39
0.56582963 -0.26511872 0.72497159 2.7904e-39
0.56731921 -0.25521687 0.72491091 2.7904e-39
0.56887853 -0.24511328 0.7251634 2.7904e-39
0.57009685 -0.24019729 0.72862631 2.7904e-39
0.56963766 -0.23818575 0.72291762 2.7904e-39
0.57069236 -0.233869 0.72584325 2.7904e-39
0.57191741 -0.22506478 0.72494352 2.7904e-39
0.5734427 -0.21499686 0.72491032 2.7904e-39
0.57482773 -0.20477231 0.72508192 2.7904e-39
0.57590508 -0.19515035 0.72496253 2.7904e-39
0.57710975 -0.18504915 0.72517085 2.7904e-39
0.57898092 -0.17647843 0.72458148 2.7907616e-39
0.58247793 -0.17217818 0.72629923 3.0695121e-39
0.58605283 -0.16710071 0.72353411 3.0619647e-39
0.59290147 -0.16334726 0.72666627 3.1423053e-39
0.62974399 0.12830332 0.72125298 1.1801041e-38
0.63405603 0.12554406 0.72515637 1.1890714e-38
0.64193529 0.12255375 0.72538269 1.4469315e-38
0.62885571 0.1349071 0.72339565 1.1706324e-38
0.63155097 0.13461089 0.72805154 1.1771512e-38
0.62942606 0.14050812 0.72159374 1.1801041e-38
0.63483131 0.14315805 0.7241376 1.2625039e-38
0.64155698 0.1441668 0.72686231 1.2892264e-38
0.61757857 0.2393164 0.7224617 8.952547e-39
0.62405622 0.23819688 0.72556949 7.7493963e-39
0.60752082 0.24733917 0.72490156 9.2248179e-39
0.61317229 0.24204686 0.72546089 8.490857e-39
0.59723699 0.25742927 0.72497857 9.0361554e-39
0.60253602 0.25245613 0.72475231 8.1166949e-39
0.58736712 0.26709825 0.72513849 9.772343e-39
0.59229231 0.26211601 0.7250402 9.0347513e-39
0.57771784 0.27747452 0.7249403 1.1524454e-38
0.5824095 0.27248424 0.72521675 1.0510299e-38
0.56810927 0.28802148 0.72532064 1.0602499e-38
0.57248819 0.28312537 0.72484189 1.1524454e-38
0.55888581 0.29885271 0.72506922 8.0210184e-39
0.5631088 0.2938858 0.72485042 8.8507805e-39
0.54970551 0.30975011 0.7253201 6.0905826e-39
0.55388099 0.30472901 0.72515124 7.8366257e-39
0.54656529 0.31500155 0.72550815 7.9369741e-39
0.54385924 0.32480076 0.72609395 5.8086077e-39
0.54280019 0.33008993 0.72587693 5.3419249e-39
0.56521654 -0.34112114 0.73786473 4.887879e-39
0.55684525 -0.33341432 0.73498827 1.753222e-39
0.56226277 -0.33867612 0.73781729 4.242518e-39
0.55583817 -0.32455471 0.73441631 2.4929618e-39
0.54548204 -0.315148 0.73417431 2.2145729e-39
0.55630493 -0.31504741 0.73523194 2.7814163e-39
0.55786723 -0.30505341 0.73481411 2.7821352e-39
0.559533 -0.29796058 0.73490816 2.7824939e-39
0.56075287 -0.29294771 0.7352429 2.7810562e-39
0.56261939 -0.28489572 0.73498178 2.7814163e-39
0.56456256 -0.27493075 0.73511368 2.7814163e-39
0.55606157 -0.26113918 0.73543555 9.0367132e-39
0.56617188 -0.26480028 0.73492688 2.7821352e-39
0.56773067 -0.25489035 0.73491466 2.8743322e-39
0.56941175 -0.24727224 0.73510516 2.7828526e-39
0.57039177 -0.24211195 0.73551196 2.7810562e-39
0.57147038 -0.23527013 0.73484957 2.7832128e-39
0.57292384 -0.22527289 0.73503929 2.7832128e-39
0.57442129 -0.21492764 0.73522449 2.7839316e-39
0.57573128 -0.20515762 0.73499632 2.7846505e-39
0.57700014 -0.19524112 0.73496133 2.785368e-39
0.57836616 -0.18493417 0.73492366 2.7871658e-39
0.58084965 -0.18133208 0.73877734 3.0533397e-39
0.57909948 -0.1792769 0.73234344 2.8833159e-39
0.5832966 -0.17451406 0.73625481 2.9733606e-39
0.58717328 -0.16693941 0.73564428 3.157756e-39
0.59366435 -0.16407208 0.73433888 3.2359401e-39
0.60186195 -0.16337839 0.73353875 4.4269219e-39
0.63770396 0.12761949 0.7318241 1.3176052e-38
0.64224917 0.1270192 0.73228669 1.5365343e-38
0.63615304 0.13403319 0.73445845 1.2505839e-38
0.64189887 0.1359873 0.73686653 1.617422e-38
0.63642865 0.14025041 0.73197651 1.2772342e-38
0.64176136 0.14062841 0.73349696 1.369754e-38
0.61939526 0.23987171 0.73234254 8.3986627e-39
0.62451708 0.2383133 0.7355544 7.564296e-39
0.60759866 0.24734659 0.73475492 7.1043688e-39
0.61431044 0.24219474 0.73545706 8.5830512e-39
0.62136316 0.24060854 0.73960024 1.1074813e-38
0.59752673 0.25752619 0.73503989 1.1616649e-38
0.60258943 0.25251493 0.73507881 1.0879083e-38
0.58714139 0.26738149 0.73516643 9.7730969e-39
0.59251428 0.26235968 0.73462951 1.1155671e-38
0.57771903 0.27739835 0.73540562 8.1132154e-39
0.5821746 0.27260989 0.73490524 9.4039542e-39
0.56826335 0.28790361 0.7353211 7.467846e-39
0.57272887 0.28285241 0.73488945 8.6663878e-39
0.55903196 0.29878655 0.73506761 9.0351717e-39
0.56327325 0.29375744 0.7347551 8.5741936e-39
0.55400366 0.30486414 0.73497033 8.2979612e-39
0.54839456 0.3155663 0.73500586 7.9369741e-39
0.55038661 0.3106046 0.7331903 5.075014e-39
0.54531002 0.32501447 0.73500532 8.2139141e-39
0.54361522 0.33042836 0.73434633 8.3043315e-39
0.56483215 -0.34083039 0.74872547 2.8599591e-39
0.55744284 -0.33280995 0.7449218 2.3986054e-39
0.56091762 -0.33692473 0.74749655 2.8599577e-39
0.55721605 -0.32504749 0.74492139 2.3067699e-39
0.55829972 -0.31486917 0.74470228 2.8606751e-39
0.55921292 -0.30586746 0.74425 2.8599577e-39
0.5605076 -0.30262542 0.7478444 2.8599577e-39
0.55983877 -0.29836118 0.74066365 2.8599577e-39
0.5615437 -0.29471442 0.74508804 2.8599577e-39
0.60370845 -0.2928367 0.74613434 2.9517792e-39
0.56338066 -0.284879 0.74497783 2.8599577e-39
0.56482476 -0.27509981 0.7450915 2.8599577e-39
0.61258537 -0.27078289 0.74887073 8.4835099e-39
0.56627572 -0.26527107 0.7448929 2.8599577e-39
0.61221504 -0.26744747 0.74926186 6.7325651e-39
0.56816798 -0.25519454 0.74508691 2.8599577e-39
0.56961501 -0.24754472 0.74446106 2.8599577e-39
0.57057059 -0.24329178 0.74585414 2.8599577e-39
0.5721662 -0.2350674 0.74525964 2.8599577e-39
0.57406545 -0.2248064 0.74545097 2.8599577e-39
0.62173975 -0.22700167 0.7484408 8.575344e-39
0.5756039 -0.21514696 0.74530929 2.8599577e-39
0.62325323 -0.21284771 0.74916005 8.4835085e-39
0.5770992 -0.20515396 0.74506849 2.8599577e-39
0.57845575 -0.19533582 0.74485934 2.8599577e-39
0.58042133 -0.19249582 0.74896228 2.9521561e-39
0.57917225 -0.18789117 0.7427631 2.8599577e-39
0.58150661 -0.18404409 0.74605429 2.8599591e-39
0.60481763 -0.18140727 0.74893057 7.0080492e-39
0.58540469 -0.17510986 0.74473405 2.8606779e-39
0.59070766 -0.17011268 0.74375057 2.8599577e-39
0.58914822 -0.16751732 0.74892044 2.8599577e-39
0.59413737 -0.16468422 0.74477541 3.0465083e-39
0.64021504 0.13331178 0.74091953 1.1694803e-38
0.61721224 0.23588243 0.74635398 7.2852302e-39
0.62751621 0.23938465 0.743958 7.9288228e-39
0.60759163 0.24762571 0.74471581 6.9210524e-39
0.6131022 0.24307087 0.74525815 8.4912157e-39
0.62401062 0.24106875 0.74314457 8.5791528e-39
0.59744358 0.25754794 0.7450369 8.7585848e-39
0.60282093 0.25246432 0.74516362 8.4823567e-39
0.58713156 0.26719838 0.74474752 7.3756504e-39
0.59240162 0.26218817 0.74546081 7.9291843e-39
0.5776605 0.27784559 0.74501419 8.0213799e-39
0.58224952 0.27267951 0.74507523 9.4039542e-39
0.56822926 0.28819314 0.74481988 9.8645709e-39
0.57275301 0.2832894 0.74520421 9.0355319e-39
0.55897605 0.29861969 0.74514252 1.1801041e-38
0.5633949 0.29371566 0.74499291 1.1340058e-38
0.5495792 0.30978033 0.74427134 7.5671252e-39
0.55387825 0.30462712 0.74505657 9.4046633e-39
0.54678965 0.31439915 0.74567145 8.305751e-39
0.54406983 0.32592526 0.7453028 5.9011579e-39
0.54522508 0.33063707 0.7440694 5.8993797e-39
0.56701213 -0.34158352 0.75586969 3.1361746e-39
0.57224452 -0.34143251 0.75910592 2.859215e-39
0.55908895 -0.33196995 0.75141531 1.9376188e-39
0.56479347 -0.33489901 0.75551456 2.398604e-39
0.57338804 -0.33470815 0.75882667 4.0581295e-39
0.5842796 -0.33351964 0.75589693 5.0737977e-39
0.59084958 -0.33061236 0.75390631 5.0738047e-39
0.55869585 -0.32532349 0.75164473 2.2142113e-39
0.56406569 -0.32514399 0.75655001 3.9667004e-39
0.5743373 -0.32524246 0.75840288 4.7046494e-39
0.58445805 -0.32452911 0.7571013 5.0741578e-39
0.59401309 -0.32268578 0.75405324 5.9953784e-39
0.55948484 -0.3155506 0.75125653 2.8599577e-39
0.56393975 -0.31499806 0.75719351 3.7823035e-39
0.57498813 -0.31637603 0.75953352 4.8894064e-39
0.58514559 -0.31482834 0.75864595 5.0738019e-39
0.59445578 -0.31440368 0.7558713 5.4425802e-39
0.60290027 -0.31661183 0.75001818 8.2069273e-39
0.56298995 -0.30507216 0.75574785 3.1365544e-39
0.58586276 -0.30494413 0.75922 5.0738047e-39
0.59471583 -0.30511412 0.75642174 5.1660003e-39
0.6024819 -0.30328003 0.75274754 7.7463261e-39
0.5649063 -0.29515168 0.75548291 3.22875e-39
0.58613729 -0.29481727 0.75903451 5.0738047e-39
0.59490412 -0.29500836 0.75645107 5.1660003e-39
0.60148364 -0.29485273 0.75413948 5.6269658e-39
0.56639814 -0.2855798 0.75459504 3.3209498e-39
0.57262129 -0.28390345 0.75925875 3.7823035e-39
0.58503598 -0.28498894 0.75902176 5.0738019e-39
0.59463727 -0.28498551 0.75650537 5.1660003e-39
0.6020813 -0.28528941 0.75422639 5.5347702e-39
0.56731242 -0.27515361 0.75402766 3.0443573e-39
0.57290655 -0.27498609 0.75914389 3.9667004e-39
0.58532411 -0.27509981 0.75888103 5.0738019e-39
0.5946005 -0.27474517 0.75644439 4.9826838e-39
0.60374695 -0.27512068 0.75364828 5.2581875e-39
0.56819451 -0.26506144 0.75308573 2.9521575e-39
0.57254982 -0.26435429 0.75840074 3.7823021e-39
0.58574718 -0.26554286 0.75884533 5.0738033e-39
0.59426099 -0.2649757 0.75690442 5.0738047e-39
0.60321057 -0.2648887 0.75425076 5.1660003e-39
0.6105001 -0.26268399 0.751073 5.3503902e-39
0.56926191 -0.25560731 0.75224984 2.8599577e-39
0.57328999 -0.25451598 0.75763243 3.6901037e-39
0.58677691 -0.25542086 0.75908917 5.0738047e-39
0.59554726 -0.25504419 0.75686258 5.0738047e-39
0.60524434 -0.25495183 0.75436187 5.1659989e-39
0.61178291 -0.25413382 0.75200212 6.0872125e-39
0.57406688 -0.24504755 0.75632107 3.5053467e-39
0.58862501 -0.24474001 0.7597127 5.1660003e-39
0.59478873 -0.24508803 0.75807261 5.1660003e-39
0.60496396 -0.24468227 0.7553094 5.1659989e-39
0.61181068 -0.24532528 0.75327569 6.1794039e-39
0.57568258 -0.23527768 0.75577575 3.3213114e-39
0.58173072 -0.23389077 0.75983196 4.704648e-39
0.59607387 -0.23514363 0.75893223 5.1660003e-39
0.60489905 -0.23516655 0.75654227 5.1660003e-39
0.61368537 -0.23494479 0.7531985 5.6266057e-39
0.57730514 -0.22560284 0.75467902 3.1365558e-39
0.58320326 -0.22507912 0.75943667 4.4280527e-39
0.59793431 -0.22659636 0.75948364 5.2581945e-39
0.60488188 -0.22456527 0.7578364 6.8251447e-39
0.6143021 -0.22517808 0.75462103 5.9953826e-39
0.57842398 -0.21550702 0.7537809 2.9521561e-39
0.58193314 -0.21465461 0.75846511 3.5057096e-39
0.59997171 -0.21558969 0.75994563 1.9913895e-38
0.60508239 -0.21548502 0.75860894 1.6313219e-38
0.61310315 -0.21470542 0.75619853 1.4933562e-38
0.62000316 -0.21000917 0.75253081 6.6403709e-39
0.5790782 -0.20602341 0.75223863 2.8599577e-39
0.5820002 -0.20451574 0.75720048 3.2287514e-39
0.60521269 -0.20518403 0.75892103 1.1511461e-38
0.61409187 -0.20485602 0.75628072 1.0228722e-38
0.62291789 -0.20118085 0.75179309 8.0229031e-39
0.57966024 -0.1988387 0.75103074 2.8599577e-39
