# .PCD v0.7 - Point Cloud Data file format
VERSION 0.7
FIELDS x y z rgb
SIZE 4 4 4 4
TYPE F F F F
COUNT 1 1 1 1
WIDTH 931
HEIGHT 1
VIEWPOINT 0 0 0 1 0 0 0
POINTS 931
DATA ascii
1.846388 -0.14398958 -6.1988831e-06 5.3473465e-39
1.853259 -0.1443554 -4.4107437e-06 5.3473465e-39
1.8636308 -0.14490777 -5.364418e-06 5.3473465e-39
1.8740665 -0.14546365 -8.1062317e-06 5.3473465e-39
1.8845737 -0.14602309 -6.3180923e-06 5.3473465e-39
1.8951451 -0.14447869 -5.8412552e-06 5.3473465e-39
1.9057971 -0.14503892 -6.4969063e-06 5.3473465e-39
1.9165121 -0.14560242 -6.6757202e-06 5.3473465e-39
1.9236979 -0.14385393 -6.3180923e-06 5.3473465e-39
1.9345429 -0.14441705 -6.4969063e-06 5.3473465e-39
1.9454534 -0.14498353 -6.7949295e-06 5.3473465e-39
1.9527702 -0.14536342 -6.3180923e-06 5.3473465e-39
1.9638126 -0.14593673 -5.6624413e-06 5.2551509e-39
1.9749247 -0.14435333 -6.9141388e-06 5.2551509e-39
1.9861215 -0.14492725 -7.3711076e-06 5.2551509e-39
1.9973863 -0.14550464 -7.5101852e-06 5.2551509e-39
2.00494 -0.14371131 -5.7220459e-06 5.2551509e-39
2.0125325 -0.14409548 -6.7949295e-06 5.2551509e-39
2.0239892 -0.14467503 -6.3180923e-06 5.2551509e-39
2.0355189 -0.14525837 -7.0333481e-06 5.2551509e-39
2.0432489 -0.14564931 -4.6491623e-06 5.2551509e-39
2.0549259 -0.1462402 -7.390976e-06 5.2551509e-39
2.0666733 -0.14461301 -7.9870224e-06 5.2551509e-39
2.0745513 -0.14500628 -6.5565109e-06 5.2551509e-39
2.0824697 -0.1454016 -7.0333481e-06 5.2551509e-39
2.0944188 -0.14375812 -5.4240227e-06 5.2551509e-39
2.1064484 -0.14435077 -6.7949295e-06 5.2551509e-39
2.1145186 -0.1447483 -7.2717667e-06 5.2551509e-39
2.1226256 -0.14514759 -6.4373016e-06 5.2551509e-39
2.1348662 -0.1457506 -7.0333481e-06 5.2551509e-39
2.1471853 -0.14635742 -7.0333481e-06 5.2551509e-39
2.1554482 -0.14676437 -5.364418e-06 5.2551509e-39
2.1637557 -0.14488751 -6.5565109e-06 5.2551509e-39
2.1721027 -0.14529316 -7.2717667e-06 5.2551509e-39
2.1847022 -0.14360529 -6.7353249e-06 5.2551509e-39
2.1973865 -0.14421329 -7.7486038e-06 5.2551509e-39
2.2403574 -0.14860982 -5.8412552e-06 5.2551509e-39
1.5486465 -0.13376403 -7.390976e-06 6.730281e-39
1.5570883 -0.13423035 -5.7220459e-06 5.3473465e-39
1.5655762 -0.13469929 -5.1259995e-06 5.3473465e-39
1.5737704 -0.13510756 -0.00063336891 5.3473465e-39
1.5855936 -0.13580526 -5.9008598e-06 5.3473465e-39
1.5942543 -0.13437675 -5.8412552e-06 5.3473465e-39
1.6033552 -0.13503107 -0.00062150595 5.3473465e-39
1.6146777 -0.13549149 -4.7087669e-06 5.3473465e-39
1.6264782 -0.13420711 -4.4107437e-06 5.3473465e-39
1.6353906 -0.13468772 -5.6028366e-06 5.3473465e-39
1.6443621 -0.13517141 -4.9471855e-06 5.3473465e-39
1.6564077 -0.13582091 -5.2452087e-06 5.3473465e-39
1.6655054 -0.13435705 -6.3180923e-06 5.3473465e-39
1.6746643 -0.13484475 -5.7816505e-06 5.3473465e-39
1.6838738 -0.13533515 -5.0067902e-06 5.3473465e-39
1.693771 -0.13467735 -7.1525574e-06 5.3473465e-39
1.7056028 -0.13451122 -6.4373016e-06 5.3473465e-39
1.7150074 -0.13500576 -5.9604645e-06 5.3473465e-39
1.7244779 -0.13550374 -5.1856041e-06 5.3473465e-39
1.7340037 -0.13400464 -5.7220459e-06 5.3473465e-39
1.743596 -0.13450266 -5.4240227e-06 5.3473465e-39
1.7564776 -0.13517152 -5.7816505e-06 5.3473465e-39
1.7662061 -0.13567659 -4.7683716e-06 5.3473465e-39
1.7766616 -0.13500135 -5.1259995e-06 5.3473465e-39
1.7858629 -0.13466269 -5.6028366e-06 5.3473465e-39
1.7957896 -0.13517146 -5.1061311e-06 5.3473465e-39
1.805776 -0.13568337 -6.4373016e-06 5.3473465e-39
1.8158348 -0.13414447 -7.6293945e-06 5.3473465e-39
1.8259474 -0.13465597 -5.2452087e-06 5.3473465e-39
1.8361396 -0.13517168 -7.0333481e-06 5.3473465e-39
1.846388 -0.13569009 -6.1988831e-06 5.3473465e-39
1.853259 -0.13603763 -4.4107437e-06 5.3473465e-39
1.8636309 -0.13447605 -5.364418e-06 5.3473465e-39
1.8740665 -0.13499717 -8.1062317e-06 5.3473465e-39
1.8845736 -0.13552165 -6.3180923e-06 5.3473465e-39
1.8951451 -0.13394207 -5.8412552e-06 5.3473465e-39
1.905797 -0.13446684 -6.4969063e-06 5.3473465e-39
1.9165123 -0.13499469 -6.6757202e-06 5.3473465e-39
1.9236979 -0.13534862 -6.3180923e-06 5.3473465e-39
1.9345429 -0.13588282 -6.4969063e-06 5.3473465e-39
1.9454534 -0.13642028 -6.7949295e-06 5.3473465e-39
1.9527702 -0.13463502 -6.3180923e-06 5.3473465e-39
1.9638127 -0.13517158 -5.6624413e-06 5.2551509e-39
1.9749248 -0.13355117 -6.9141388e-06 5.2551509e-39
1.9861202 -0.13408771 -6.4969063e-06 5.2551509e-39
1.9973862 -0.1346277 -7.5101852e-06 5.2551509e-39
2.00494 -0.13498968 -5.7220459e-06 5.2551509e-39
2.0125325 -0.13535361 -6.7949295e-06 5.2551509e-39
2.023989 -0.13590267 -6.3180923e-06 5.2551509e-39
2.0355189 -0.1364553 -7.0333481e-06 5.2551509e-39
2.0432489 -0.13461977 -4.6491623e-06 5.2551509e-39
2.0549252 -0.13517171 -6.9538751e-06 5.2551509e-39
2.0666733 -0.13350549 -7.9870224e-06 5.2551509e-39
2.0745513 -0.13387254 -6.5565109e-06 5.2551509e-39
2.0824697 -0.13424149 -7.0333481e-06 5.2551509e-39
2.0944188 -0.13479823 -5.4240227e-06 5.2551509e-39
2.1064484 -0.13535881 -6.7949295e-06 5.2551509e-39
2.1145186 -0.13573489 -7.2717667e-06 5.2551509e-39
2.1226256 -0.1361126 -6.4373016e-06 5.2551509e-39
2.1356845 -0.13535935 -6.7949295e-06 5.2551509e-39
2.1471853 -0.13498192 -7.0333481e-06 5.2551509e-39
2.1554482 -0.13536137 -5.364418e-06 5.2551509e-39
2.1637557 -0.13345686 -6.5565109e-06 5.2551509e-39
2.1721027 -0.13383472 -7.2717667e-06 5.2551509e-39
2.183831 -0.13486001 -0.00039372226 5.2551509e-39
2.1973865 -0.13497922 -7.7486038e-06 5.2551509e-39
1.5486465 -0.12438066 -7.390976e-06 6.730281e-39
1.5570881 -0.12481888 -5.7220459e-06 5.3473465e-39
1.5655762 -0.12525958 -5.1259995e-06 5.3473465e-39
1.5746932 -0.12459563 -5.2928926e-06 5.3473465e-39
1.5855929 -0.12439761 -5.4240227e-06 5.3473465e-39
1.5942541 -0.12484159 -5.8412552e-06 5.3473465e-39
1.6029726 -0.1252884 -4.7683716e-06 5.3473465e-39
1.6146775 -0.12588836 -4.7087669e-06 5.3473465e-39
1.6264781 -0.12456469 -4.4107437e-06 5.3473465e-39
1.6353906 -0.12501565 -5.6028366e-06 5.3473465e-39
1.644362 -0.12546948 -4.9471855e-06 5.3473465e-39
1.6564078 -0.12413049 -5.2650771e-06 5.3473465e-39
1.6655054 -0.12458473 -6.3180923e-06 5.3473465e-39
1.6746644 -0.12504196 -5.7816505e-06 5.3473465e-39
1.6838738 -0.12550171 -5.0067902e-06 5.3473465e-39
1.6925309 -0.12514403 -7.0333481e-06 5.3473465e-39
1.7056029 -0.12460544 -6.4373016e-06 5.3473465e-39
1.7161574 -0.12622845 -0.00057490513 5.3473465e-39
1.724478 -0.12553516 -5.1856041e-06 5.3473465e-39
1.7340037 -0.12400434 -5.7220459e-06 5.3473465e-39
1.743596 -0.12447044 -5.4240227e-06 5.3473465e-39
1.7564775 -0.12509643 -5.7816505e-06 5.3473465e-39
1.7662061 -0.12556912 -4.7683716e-06 5.3473465e-39
1.7753509 -0.12520143 -5.0067902e-06 5.3473465e-39
1.7858629 -0.12448978 -5.6028366e-06 5.3473465e-39
1.7957892 -0.12496549 -4.8875809e-06 5.3473465e-39
1.805776 -0.1254442 -6.4373016e-06 5.3473465e-39
1.8158348 -0.12592635 -7.6293945e-06 5.3473465e-39
1.8259474 -0.12434965 -5.2452087e-06 5.3473465e-39
1.8361396 -0.12483144 -7.0333481e-06 5.3473465e-39
1.846388 -0.12531576 -6.1988831e-06 5.3473465e-39
1.853259 -0.12564042 -4.4107437e-06 5.3473465e-39
1.8636309 -0.12404431 -5.364418e-06 5.3473465e-39
1.8740665 -0.1245307 -8.1062317e-06 5.3473465e-39
1.8845737 -0.12502021 -6.3180923e-06 5.3473465e-39
1.8951451 -0.12551278 -5.8412552e-06 5.3473465e-39
1.905797 -0.12600918 -6.4969063e-06 5.3473465e-39
1.9165121 -0.12438693 -6.6757202e-06 5.3473465e-39
1.9236962 -0.12471682 -4.8875809e-06 5.3473465e-39
1.934543 -0.12521508 -6.4969063e-06 5.3473465e-39
1.9454533 -0.12571622 -6.7949295e-06 5.3473465e-39
1.9527702 -0.12390659 -6.3180923e-06 5.2551509e-39
1.9638126 -0.1244064 -5.6624413e-06 5.2551509e-39
1.9749248 -0.12490944 -6.9141388e-06 5.2551509e-39
1.9861197 -0.12541616 -6.1988831e-06 5.2551509e-39
1.9973862 -0.12592617 -7.5101852e-06 5.2551509e-39
2.00494 -0.12626803 -5.7220459e-06 5.2551509e-39
2.0125325 -0.12442628 -6.7949295e-06 5.2551509e-39
2.023989 -0.12493721 -6.3180923e-06 5.2551509e-39
2.0355189 -0.12545148 -7.0333481e-06 5.2551509e-39
2.0432489 -0.12359022 -4.6491623e-06 5.2551509e-39
2.054924 -0.1241032 -6.0796738e-06 5.2551509e-39
2.0666733 -0.12461947 -7.9870224e-06 5.2551509e-39
2.0745513 -0.12496554 -6.5565109e-06 5.2551509e-39
2.0824697 -0.12531343 -7.0333481e-06 5.2551509e-39
2.0944188 -0.12583832 -5.4240227e-06 5.2551509e-39
2.1064484 -0.12636688 -6.7949295e-06 5.2551509e-39
2.1145186 -0.12672147 -7.2717667e-06 5.2551509e-39
2.1226256 -0.12481885 -6.5167746e-06 5.2551509e-39
2.134048 -0.12440526 -7.2717667e-06 5.2551509e-39
2.1471853 -0.12360643 -7.0333481e-06 5.2551509e-39
2.1554482 -0.12395838 -5.364418e-06 5.2551509e-39
2.1637557 -0.12431235 -6.5565109e-06 5.2551509e-39
2.1721027 -0.12695967 -7.2717667e-06 5.2551509e-39
2.1847022 -0.12520473 -6.7353249e-06 5.2551509e-39
2.1973848 -0.12574503 -6.5565109e-06 5.2551509e-39
1.5486465 -0.11499729 -7.390976e-06 6.730281e-39
1.5570883 -0.11540743 -5.7220459e-06 5.3473465e-39
1.5655762 -0.11581985 -5.1259995e-06 5.3473465e-39
1.5735508 -0.11544915 -5.1975248e-06 5.3473465e-39
1.585593 -0.11489128 -5.4240227e-06 5.3473465e-39
1.5942543 -0.11530642 -5.8412552e-06 5.3473465e-39
1.6035557 -0.1146033 -4.7922135e-06 5.3473465e-39
1.6146775 -0.11436459 -4.7087669e-06 5.3473465e-39
1.6264782 -0.11492229 -4.4107437e-06 5.3473465e-39
1.6353906 -0.11534357 -5.6028366e-06 5.3473465e-39
1.6451002 -0.11614419 -0.0010205751 5.3473465e-39
1.6564078 -0.11438847 -5.3048134e-06 5.3473465e-39
1.6655054 -0.11481243 -6.3180923e-06 5.3473465e-39
1.6746643 -0.11523917 -5.7816505e-06 5.3473465e-39
1.6838738 -0.11566827 -5.0067902e-06 5.3473465e-39
1.6931491 -0.11412764 -5.7816505e-06 5.3473465e-39
1.7056028 -0.11469966 -6.4373016e-06 5.3473465e-39
1.7150074 -0.11513162 -5.9604645e-06 5.3473465e-39
1.7244779 -0.11556656 -5.1856041e-06 5.3473465e-39
1.7340037 -0.11400405 -5.7220459e-06 5.3473465e-39
1.7435958 -0.11443824 -5.4240227e-06 5.3473465e-39
1.7564776 -0.11502132 -5.7816505e-06 5.3473465e-39
1.7662061 -0.11546165 -4.7683716e-06 5.3473465e-39
1.7760062 -0.11590527 -5.0663948e-06 5.3473465e-39
1.7858629 -0.11431688 -5.6028366e-06 5.3473465e-39
1.7957892 -0.11475956 -4.8875809e-06 5.3473465e-39
1.805776 -0.11520503 -6.4373016e-06 5.3473465e-39
1.8158346 -0.11565367 -7.6293945e-06 5.3473465e-39
1.8259474 -0.11404334 -5.2452087e-06 5.3473465e-39
1.8361396 -0.11449121 -7.0333481e-06 5.3473465e-39
1.846388 -0.11494141 -6.1988831e-06 5.3473465e-39
1.853259 -0.11524321 -4.4107437e-06 5.3473465e-39
1.8636309 -0.11569893 -5.364418e-06 5.3473465e-39
1.8740665 -0.11615751 -8.1062317e-06 5.3473465e-39
1.8845736 -0.11451877 -6.3180923e-06 5.3473465e-39
1.8951451 -0.11497615 -5.8412552e-06 5.3473465e-39
1.905797 -0.11543711 -6.4969063e-06 5.3473465e-39
1.9165123 -0.11377919 -6.6757202e-06 5.3473465e-39
1.9236962 -0.11408518 -4.8875809e-06 5.3473465e-39
1.9345421 -0.11454728 -5.9008598e-06 5.3473465e-39
1.9454534 -0.11501215 -6.7949295e-06 5.3473465e-39
1.9527702 -0.11532386 -6.3180923e-06 5.2551509e-39
1.9638126 -0.11579426 -5.6624413e-06 5.2551509e-39
1.9749248 -0.11626771 -6.9141388e-06 5.2551509e-39
1.9861193 -0.1145767 -5.9008598e-06 5.2551509e-39
1.997385 -0.11504918 -6.6359839e-06 5.2551509e-39
2.00494 -0.11536597 -5.7220459e-06 5.2551509e-39
2.0125325 -0.11349896 -6.7949295e-06 5.2551509e-39
2.0239892 -0.11397175 -6.3180923e-06 5.2551509e-39
2.0355189 -0.11444764 -7.0333481e-06 5.2551509e-39
2.0432489 -0.11476657 -4.6491623e-06 5.2551509e-39
2.0549231 -0.11524841 -5.4240227e-06 5.2551509e-39
2.0666733 -0.11573344 -7.9870224e-06 5.2551509e-39
2.0745513 -0.11605854 -6.5565109e-06 5.2551509e-39
2.0824697 -0.11638534 -7.0333481e-06 5.2551509e-39
2.0944188 -0.11463846 -5.4240227e-06 5.2551509e-39
2.1064484 -0.11512699 -6.7949295e-06 5.2551509e-39
2.1155124 -0.11508138 -0.00049537834 5.2551509e-39
2.1226256 -0.11352511 -6.6757202e-06 5.2551509e-39
2.1348653 -0.11401396 -6.377697e-06 5.2551509e-39
2.1471853 -0.11450604 -7.0333481e-06 5.2551509e-39
2.1554482 -0.11483599 -5.364418e-06 5.2551509e-39
2.1637557 -0.11516783 -6.5565109e-06 5.2551509e-39
2.1721027 -0.11550123 -7.2717667e-06 5.2551509e-39
2.2403574 -0.1112159 -5.8412552e-06 5.2551509e-39
2.2933562 -0.11322689 -7.6293945e-06 5.2551509e-39
1.5486448 -0.10561378 -5.9604645e-06 6.730281e-39
1.5570887 -0.1041137 -6.1988831e-06 5.3473465e-39
1.5666382 -0.10478874 -0.0013313072 5.4395422e-39
1.5741225 -0.10487339 -5.7220459e-06 5.3473465e-39
1.5855932 -0.10538497 -5.6425729e-06 5.3473465e-39
1.5938864 -0.10660723 -0.00082888716 5.3473465e-39
1.6023903 -0.10536816 -5.0067902e-06 5.3473465e-39
1.6146784 -0.10476152 -5.4240227e-06 5.3473465e-39
1.6264786 -0.10527991 -4.7385693e-06 5.3473465e-39
1.6353915 -0.10567155 -6.377697e-06 5.3473465e-39
1.6443626 -0.10412526 -5.4041543e-06 5.3473465e-39
1.6564082 -0.10464645 -5.543232e-06 5.3473465e-39
1.6655054 -0.10504011 -6.3180923e-06 5.3473465e-39
1.6746646 -0.10543639 -6.0200691e-06 5.3473465e-39
1.6838742 -0.10583486 -5.443891e-06 5.3473465e-39
1.6931491 -0.10426332 -5.7816505e-06 5.3473465e-39
1.7056029 -0.10479391 -6.4373016e-06 5.3473465e-39
1.7150074 -0.10519454 -5.9604645e-06 5.3473465e-39
1.7244779 -0.10559797 -5.1856041e-06 5.3473465e-39
1.7340041 -0.10400379 -6.1988831e-06 5.3473465e-39
1.7435964 -0.10440603 -5.6425729e-06 5.3473465e-39
1.7564772 -0.10494623 -5.5631003e-06 5.3473465e-39
1.7662061 -0.10535419 -4.7683716e-06 5.3473465e-39
1.7760062 -0.10576519 -5.0663948e-06 5.3473465e-39
1.7858629 -0.10414399 -5.6028366e-06 5.3473465e-39
1.7957892 -0.10455364 -4.8875809e-06 5.3473465e-39
1.805776 -0.10496586 -6.4373016e-06 5.3473465e-39
1.815833 -0.10538091 -6.2584877e-06 5.3473465e-39
1.8259474 -0.1057983 -5.2452087e-06 5.3473465e-39
1.8368206 -0.10500493 -6.8902968e-06 5.3473465e-39
1.846388 -0.10456707 -6.1988831e-06 5.3473465e-39
1.853259 -0.10484601 -4.4107437e-06 5.3473465e-39
1.8636309 -0.10526719 -5.364418e-06 5.3473465e-39
1.8740641 -0.1056909 -6.3578286e-06 5.3473465e-39
1.8845736 -0.10401734 -6.3180923e-06 5.3473465e-39
1.8951451 -0.10443954 -5.8412552e-06 5.3473465e-39
1.9057971 -0.10486501 -6.4969063e-06 5.3473465e-39
1.9165123 -0.105293 -6.6757202e-06 5.3473465e-39
1.9236962 -0.10557986 -4.8875809e-06 5.3473465e-39
1.9345421 -0.10601306 -5.9008598e-06 5.3473465e-39
1.9454533 -0.10430808 -6.7949295e-06 5.2551509e-39
1.9527702 -0.10459543 -6.3180923e-06 5.2551509e-39
1.9638127 -0.10502908 -5.6624413e-06 5.2551509e-39
1.9749247 -0.10546555 -6.9141388e-06 5.2551509e-39
1.9861193 -0.10373729 -5.9008598e-06 5.2551509e-39
1.9973826 -0.10417211 -4.8875809e-06 5.2551509e-39
2.00494 -0.10446391 -5.7220459e-06 5.2551509e-39
2.0125325 -0.10475709 -6.7949295e-06 5.2551509e-39
2.023989 -0.10519939 -6.3180923e-06 5.2551509e-39
2.0355189 -0.10564457 -7.0333481e-06 5.2551509e-39
2.0432489 -0.10594293 -4.6491623e-06 5.2551509e-39
2.0552242 -0.10627045 -0.00087390223 5.2551509e-39
2.0666697 -0.10462568 -5.6028366e-06 5.2551509e-39
2.0745513 -0.1049248 -6.5565109e-06 5.2551509e-39
2.0824697 -0.10522524 -7.0333481e-06 5.2551509e-39
2.0944188 -0.10343859 -5.4240227e-06 5.2551509e-39
2.1064484 -0.10388708 -6.7949295e-06 5.2551509e-39
2.1145186 -0.10418792 -7.2717667e-06 5.2551509e-39
2.1226256 -0.10449012 -6.6757202e-06 5.2551509e-39
2.1348653 -0.10494636 -6.377697e-06 5.2551509e-39
2.1471853 -0.10540564 -7.0333481e-06 5.2551509e-39
2.1554482 -0.10571359 -5.364418e-06 5.2551509e-39
2.1637557 -0.10602332 -6.5565109e-06 5.2551509e-39
2.205894 -0.10065155 -5.8412552e-06 5.2551509e-39
2.2144487 -0.10095341 -7.2717667e-06 5.2551509e-39
2.2230418 -0.10125654 -6.5565109e-06 5.2551509e-39
2.2316804 -0.10389268 -7.5101852e-06 5.2551509e-39
2.2403574 -0.10420455 -5.8412552e-06 5.2551509e-39
2.2933562 -0.10610968 -7.6293945e-06 5.2551509e-39
1.5486431 -0.096230291 -4.529953e-06 6.730281e-39
1.5570889 -0.094702259 -6.4373016e-06 5.3473465e-39
1.5655781 -0.09505263 -6.6757202e-06 5.3473465e-39
1.5741229 -0.095405251 -5.9604645e-06 5.3473465e-39
1.5855937 -0.093977414 -6.0796738e-06 5.3473465e-39
1.5942541 -0.094329059 -5.8412552e-06 5.3473465e-39
1.6029736 -0.094683088 -5.4240227e-06 5.3473465e-39
1.6146793 -0.095158435 -6.1392784e-06 5.3473465e-39
1.6264791 -0.095637523 -5.0663948e-06 5.3473465e-39
1.6353923 -0.095999539 -7.1525574e-06 5.3473465e-39
1.6443636 -0.094423398 -6.3180923e-06 5.3473465e-39
1.6564078 -0.094904408 -5.2750111e-06 5.3473465e-39
1.6655054 -0.095267802 -6.3180923e-06 5.3473465e-39
1.6746652 -0.095633641 -6.4969063e-06 5.3473465e-39
1.6838754 -0.094034798 -6.3180923e-06 5.3473465e-39
1.69315 -0.094399057 -6.4373016e-06 5.3473465e-39
1.7056031 -0.094888158 -6.6558518e-06 5.3473465e-39
1.7150074 -0.095257483 -5.9604645e-06 5.3473465e-39
1.7244787 -0.095629454 -5.8412552e-06 5.3473465e-39
1.7340053 -0.094003588 -7.1525574e-06 5.3473465e-39
1.7435968 -0.094373867 -6.0796738e-06 5.3473465e-39
1.7564776 -0.094871163 -5.7816505e-06 5.3473465e-39
1.7662061 -0.095246732 -4.7683716e-06 5.3473465e-39
1.7760072 -0.09562517 -5.7220459e-06 5.3473465e-39
1.7858647 -0.096005797 -6.9141388e-06 5.3473465e-39
1.7957902 -0.094347753 -5.543232e-06 5.3473465e-39
1.805776 -0.094726682 -6.4373016e-06 5.3473465e-39
1.815833 -0.095108271 -6.2584877e-06 5.3473465e-39
1.8259486 -0.095492072 -6.0399375e-06 5.3473465e-39
1.8354591 -0.095024869 -7.7009199e-06 5.3473465e-39
1.846388 -0.094192736 -6.1988831e-06 5.3473465e-39
1.8532606 -0.094448924 -5.8412552e-06 5.3473465e-39
1.8636327 -0.094835594 -6.7949295e-06 5.3473465e-39
1.874063 -0.095224366 -5.4836273e-06 5.3473465e-39
1.8845741 -0.095616221 -6.6757202e-06 5.3473465e-39
1.8951459 -0.096010305 -6.4969063e-06 5.3473465e-39
1.9065098 -0.095163867 -6.9618227e-06 5.3473465e-39
1.9165121 -0.094685234 -6.6757202e-06 5.3473465e-39
1.9236974 -0.094948262 -5.8412552e-06 5.3473465e-39
1.9345427 -0.095345341 -6.298224e-06 5.3473465e-39
1.9454534 -0.093603998 -6.7949295e-06 5.2551509e-39
1.9527712 -0.093867056 -6.9141388e-06 5.2551509e-39
1.9638129 -0.094263926 -5.9604645e-06 5.2551509e-39
1.9749248 -0.094663382 -6.9141388e-06 5.2551509e-39
1.9861197 -0.095065773 -6.1988831e-06 5.2551509e-39
1.9973844 -0.095470682 -6.1988831e-06 5.2551509e-39
2.00494 -0.095742255 -5.7220459e-06 5.2551509e-39
2.0125325 -0.096015215 -6.7949295e-06 5.2551509e-39
2.0239892 -0.096427009 -6.3180923e-06 5.2551509e-39
2.0355189 -0.094640709 -7.0333481e-06 5.2551509e-39
2.0432494 -0.094913393 -5.0465264e-06 5.2551509e-39
2.0549238 -0.095325284 -5.8611236e-06 5.2551509e-39
2.0666697 -0.093518168 -5.6028366e-06 5.2551509e-39
2.0745513 -0.093791038 -6.5565109e-06 5.2551509e-39
2.0824697 -0.09406513 -7.0333481e-06 5.2551509e-39
2.0944188 -0.094478697 -5.4240227e-06 5.2551509e-39
2.1064484 -0.094895147 -6.7949295e-06 5.2551509e-39
2.1145186 -0.095174506 -7.2717667e-06 5.2551509e-39
2.1226256 -0.09545511 -6.6757202e-06 5.2551509e-39
2.1348655 -0.09587878 -6.377697e-06 5.2551509e-39
2.1471853 -0.096305236 -7.0333481e-06 5.2551509e-39
2.1554482 -0.096591204 -5.364418e-06 5.2551509e-39
2.1637557 -0.094592668 -6.5565109e-06 5.2551509e-39
2.205894 -0.093709014 -5.8412552e-06 5.2551509e-39
2.2144487 -0.093993783 -7.2717667e-06 5.2551509e-39
2.2230418 -0.094279766 -6.5565109e-06 5.2551509e-39
2.2403574 -0.097193189 -5.8412552e-06 5.2551509e-39
2.2578459 -0.093089357 -5.364418e-06 5.2551509e-39
2.2933543 -0.096619993 -6.4969063e-06 5.2551509e-39
2.366555 -0.091792956 -6.3180923e-06 5.2551509e-39
1.5486431 -0.084970273 -4.529953e-06 6.730281e-39
1.557089 -0.08529079 -6.4373016e-06 5.3473465e-39
1.5655781 -0.085612893 -6.6757202e-06 5.3473465e-39
1.5741229 -0.08593709 -5.9604645e-06 5.3473465e-39
1.5855937 -0.084471062 -6.0796738e-06 5.3473465e-39
1.5942543 -0.084793895 -5.8412552e-06 5.3473465e-39
1.6029736 -0.08511892 -5.4240227e-06 5.3473465e-39
1.6146793 -0.0855553 -6.1392784e-06 5.3473465e-39
1.6264791 -0.084066629 -5.0663948e-06 5.3473465e-39
1.6353923 -0.084393024 -7.1525574e-06 5.3473465e-39
1.6443635 -0.084721446 -6.3180923e-06 5.3473465e-39
1.6564069 -0.085162312 -4.529953e-06 5.3473465e-39
1.6655054 -0.085495494 -6.3180923e-06 5.3473465e-39
1.6746653 -0.085830845 -6.4969063e-06 5.3473465e-39
1.6838754 -0.084201351 -6.3180923e-06 5.3473465e-39
1.69315 -0.084534734 -6.4373016e-06 5.3473465e-39
1.7056022 -0.084982321 -5.7816505e-06 5.3473465e-39
1.7150074 -0.085320413 -5.9604645e-06 5.3473465e-39
1.7251133 -0.086152412 -0.00016169346 5.3473465e-39
1.7340053 -0.084003292 -7.1525574e-06 5.3473465e-39
1.7435967 -0.084341645 -6.0796738e-06 5.3473465e-39
1.7564775 -0.084796064 -5.7816505e-06 5.3473465e-39
1.7662061 -0.085139252 -4.7683716e-06 5.3473465e-39
1.7760072 -0.085485071 -5.7220459e-06 5.3473465e-39
1.7858647 -0.085832886 -6.9141388e-06 5.3473465e-39
1.7957902 -0.084141821 -5.543232e-06 5.3473465e-39
1.805776 -0.084487513 -6.4373016e-06 5.3473465e-39
1.8158329 -0.084835619 -6.2584877e-06 5.3473465e-39
1.8259482 -0.085185744 -5.8412552e-06 5.3473465e-39
1.8361405 -0.085538603 -7.6889992e-06 5.3473465e-39
1.846388 -0.085893258 -6.1988831e-06 5.3473465e-39
1.8532606 -0.086131148 -5.8412552e-06 5.3473465e-39
1.8636326 -0.084403843 -6.7949295e-06 5.3473465e-39
1.874063 -0.084757902 -5.4836273e-06 5.3473465e-39
1.8845744 -0.085114807 -7.0333481e-06 5.3473465e-39
1.8951468 -0.085473724 -7.1525574e-06 5.3473465e-39
1.9050858 -0.084964432 -7.1763993e-06 5.3473465e-39
1.9165123 -0.084077492 -6.6757202e-06 5.3473465e-39
1.9236979 -0.084316641 -6.3180923e-06 5.3473465e-39
1.9345429 -0.084677607 -6.4969063e-06 5.2551509e-39
1.9454516 -0.085040651 -5.4836273e-06 5.2551509e-39
1.9527721 -0.085284367 -7.5101852e-06 5.2551509e-39
1.9638134 -0.085651815 -6.2584877e-06 5.2551509e-39
1.9749248 -0.086021654 -6.9141388e-06 5.2551509e-39
1.9868686 -0.085116945 -6.3657762e-06 5.2551509e-39
1.9973863 -0.08459387 -7.5101852e-06 5.2551509e-39
2.00494 -0.084840208 -5.7220459e-06 5.2551509e-39
2.0125329 -0.085087925 -7.1922937e-06 5.2551509e-39
2.0239899 -0.085461594 -6.9141388e-06 5.2551509e-39
2.0355189 -0.083636887 -7.0333481e-06 5.2551509e-39
2.0432506 -0.083883896 -5.8412552e-06 5.2551509e-39
2.054925 -0.084256932 -6.7353249e-06 5.2551509e-39
2.0666697 -0.084632166 -5.6028366e-06 5.2551509e-39
2.0745513 -0.084884048 -6.5565109e-06 5.2551509e-39
2.0824697 -0.085137054 -7.0333481e-06 5.2551509e-39
2.0944195 -0.085518852 -5.9604645e-06 5.2551509e-39
2.1064506 -0.085903332 -8.225441e-06 5.2551509e-39
2.1145186 -0.086161092 -7.2717667e-06 5.2551509e-39
2.1226275 -0.086420201 -7.7486038e-06 5.2551509e-39
2.1356852 -0.085475609 -6.9856642e-06 5.2551509e-39
2.1471834 -0.084929653 -5.9604645e-06 5.2551509e-39
2.1554506 -0.085188329 -6.9538751e-06 5.2551509e-39
2.1637557 -0.083162025 -6.5565109e-06 5.2551509e-39
2.1721046 -0.083417721 -8.4638596e-06 5.2551509e-39
2.1847041 -0.083803512 -7.8976154e-06 5.2551509e-39
2.1973848 -0.084191769 -6.5565109e-06 5.2551509e-39
2.2058959 -0.084452391 -7.0333481e-06 5.2551509e-39
2.2144487 -0.084714293 -7.2717667e-06 5.2551509e-39
2.2230418 -0.084977396 -6.4373016e-06 5.2551509e-39
2.2578468 -0.086043119 -5.9604645e-06 5.2551509e-39
2.2666595 -0.08395838 -7.5101852e-06 5.2551509e-39
2.3665559 -0.084529623 -6.9737434e-06 5.2551509e-39
1.5486431 -0.075586915 -4.529953e-06 6.730281e-39
1.5570873 -0.073996924 -4.9471855e-06 5.3473465e-39
1.5655781 -0.074285239 -6.6757202e-06 5.3473465e-39
1.5741229 -0.074575298 -5.9604645e-06 5.3473465e-39
1.5855937 -0.074964724 -6.0796738e-06 5.3473465e-39
1.5946429 -0.074300013 -0.00044419695 5.3473465e-39
1.6029736 -0.075554729 -5.4240227e-06 5.3473465e-39
1.6146792 -0.075952142 -6.1392784e-06 5.3473465e-39
1.6264789 -0.074424207 -5.0663948e-06 5.3473465e-39
1.6353923 -0.074720941 -7.1525574e-06 5.3473465e-39
1.6443636 -0.075019509 -6.3180923e-06 5.3473465e-39
1.6564069 -0.07542029 -4.529953e-06 5.3473465e-39
1.6655054 -0.075723186 -6.3180923e-06 5.3473465e-39
1.6746651 -0.074067488 -6.4969063e-06 5.3473465e-39
1.6838754 -0.074367903 -6.3180923e-06 5.3473465e-39
1.69315 -0.074670412 -6.4373016e-06 5.3473465e-39
1.705602 -0.07507655 -5.7816505e-06 5.3473465e-39
1.7150064 -0.075383283 -5.0862632e-06 5.3473465e-39
1.7244787 -0.075692274 -5.8412552e-06 5.3473465e-39
1.7340053 -0.074002981 -7.1525574e-06 5.3473465e-39
1.7435968 -0.074309416 -6.0796738e-06 5.3473465e-39
1.7564776 -0.074720971 -5.7816505e-06 5.3473465e-39
1.7662061 -0.075031787 -4.7683716e-06 5.3473465e-39
1.7760072 -0.07534498 -5.7220459e-06 5.3473465e-39
1.7858647 -0.075659983 -6.9141388e-06 5.3473465e-39
1.7957902 -0.075977072 -5.543232e-06 5.3473465e-39
1.805776 -0.074248336 -6.4373016e-06 5.3473465e-39
1.8158327 -0.074562974 -6.2584877e-06 5.3473465e-39
1.8249682 -0.073939346 -0.00077584444 5.3473465e-39
1.8361405 -0.07519836 -7.6889992e-06 5.3473465e-39
1.846388 -0.075518914 -6.1988831e-06 5.3473465e-39
1.8532606 -0.07573393 -5.8412552e-06 5.3473465e-39
1.8636327 -0.073972106 -6.7949295e-06 5.3473465e-39
1.874063 -0.074291453 -5.4836273e-06 5.3473465e-39
1.8845726 -0.074613266 -5.6624413e-06 5.3473465e-39
1.8951468 -0.07493709 -7.1525574e-06 5.3473465e-39
1.905798 -0.075263239 -7.212162e-06 5.3473465e-39
1.9165123 -0.075591311 -6.6757202e-06 5.3473465e-39
1.9236979 -0.075811327 -6.3180923e-06 5.3473465e-39
1.9345429 -0.076143406 -6.4969063e-06 5.2551509e-39
1.9454516 -0.074336596 -5.4836273e-06 5.2551509e-39
1.9527708 -0.074555881 -6.7154565e-06 5.2551509e-39
1.9638134 -0.074886642 -6.2584877e-06 5.2551509e-39
1.9749247 -0.075219497 -6.9141388e-06 5.2551509e-39
1.9853718 -0.07466428 -6.6280363e-06 5.2551509e-39
1.9973862 -0.073716953 -7.5101852e-06 5.2551509e-39
2.00494 -0.073938154 -5.7220459e-06 5.2551509e-39
2.0125308 -0.074160472 -5.6028366e-06 5.2551509e-39
2.0239899 -0.074496135 -6.9141388e-06 5.2551509e-39
2.0355189 -0.074833818 -7.0333481e-06 5.2551509e-39
2.0432506 -0.075060248 -5.8412552e-06 5.2551509e-39
2.054925 -0.0754022 -6.7353249e-06 5.2551509e-39
2.0666697 -0.075746156 -5.6028366e-06 5.2551509e-39
2.0745513 -0.075977042 -6.5565109e-06 5.2551509e-39
2.0824656 -0.076208785 -4.4107437e-06 5.2551509e-39
2.0944195 -0.076558948 -5.9604645e-06 5.2551509e-39
2.1064506 -0.074663408 -8.225441e-06 5.2551509e-39
2.1145186 -0.074894316 -7.2717667e-06 5.2551509e-39
2.1226275 -0.075126439 -7.7486038e-06 5.2551509e-39
2.1340477 -0.074545458 -6.9618227e-06 5.2551509e-39
2.1471834 -0.073554173 -5.9604645e-06 5.2551509e-39
2.1554518 -0.07378538 -7.7486038e-06 5.2551509e-39
2.1637557 -0.07401751 -6.5565109e-06 5.2551509e-39
2.1721046 -0.074250974 -8.4638596e-06 5.2551509e-39
2.1847043 -0.074603215 -7.9274178e-06 5.2551509e-39
2.1968691 -0.075125098 -0.00055756472 5.2551509e-39
2.2058959 -0.07519567 -7.0333481e-06 5.2551509e-39
2.2144487 -0.075434797 -7.2717667e-06 5.2551509e-39
2.2230399 -0.078000523 -5.2452087e-06 5.2551509e-39
2.3113782 -0.07337594 -7.2717667e-06 5.2551509e-39
2.3204584 -0.071227282 -7.6293945e-06 5.2551509e-39
1.5486431 -0.066203564 -4.529953e-06 6.730281e-39
1.5570873 -0.064585477 -4.9471855e-06 5.3473465e-39
1.5655763 -0.06484542 -5.1856041e-06 5.3473465e-39
1.5741229 -0.065107137 -5.9604645e-06 5.3473465e-39
1.5855937 -0.065458387 -6.0796738e-06 5.3473465e-39
1.5942541 -0.06381654 -5.8412552e-06 5.3473465e-39
1.6029736 -0.064077713 -5.4240227e-06 5.3473465e-39
1.6146787 -0.064428337 -5.6624413e-06 5.3473465e-39
1.6264791 -0.064781792 -5.0663948e-06 5.3473465e-39
1.6353923 -0.065048851 -7.1525574e-06 5.3473465e-39
1.6443638 -0.065317564 -6.3180923e-06 5.3473465e-39
1.656407 -0.065678269 -4.529953e-06 5.3473465e-39
1.6655021 -0.065950684 -3.4570694e-06 5.3473465e-39
1.6746652 -0.064264685 -6.4969063e-06 5.3473465e-39
1.6838754 -0.064534441 -6.3180923e-06 5.3473465e-39
1.69315 -0.064806089 -6.4373016e-06 5.3473465e-39
1.7056022 -0.065170787 -5.7816505e-06 5.3473465e-39
1.7150059 -0.065446191 -4.6491623e-06 5.3473465e-39
1.7244782 -0.065723658 -5.5134296e-06 5.3473465e-39
1.7340053 -0.064002685 -7.1525574e-06 5.3473465e-39
1.7435967 -0.064277194 -6.0796738e-06 5.3473465e-39
1.7564775 -0.064645879 -5.7816505e-06 5.3473465e-39
1.7662061 -0.064924315 -4.7683716e-06 5.3473465e-39
1.7758996 -0.065426663 -0.00013063262 5.3473465e-39
1.7858647 -0.065487079 -6.9141388e-06 5.3473465e-39
1.7957902 -0.06577114 -5.543232e-06 5.3473465e-39
1.805776 -0.06400916 -6.4373016e-06 5.3473465e-39
1.8158329 -0.06429033 -6.2584877e-06 5.3473465e-39
1.8259474 -0.064573072 -5.2452087e-06 5.3473465e-39
1.8361387 -0.064858034 -6.3180923e-06 5.3473465e-39
1.8449129 -0.0645601 -0.0017119719 5.3473465e-39
1.8532606 -0.065336704 -5.8412552e-06 5.3473465e-39
1.8636327 -0.065626711 -6.7949295e-06 5.3473465e-39
1.874063 -0.065918289 -5.4836273e-06 5.3473465e-39
1.8852751 -0.06497018 -5.5313112e-06 5.3473465e-39
1.8951468 -0.064400464 -7.1525574e-06 5.3473465e-39
1.905798 -0.064691156 -7.212162e-06 5.3473465e-39
1.9165121 -0.064983562 -6.6757202e-06 5.3473465e-39
1.9236979 -0.065179668 -6.3180923e-06 5.3473465e-39
1.934543 -0.06547565 -6.4969063e-06 5.2551509e-39
1.9454516 -0.063632533 -5.4836273e-06 5.2551509e-39
1.9527702 -0.063827425 -6.3180923e-06 5.2551509e-39
1.9638134 -0.06412147 -6.2584877e-06 5.2551509e-39
1.9749248 -0.06441734 -6.9141388e-06 5.2551509e-39
1.9861202 -0.06471543 -6.4969063e-06 5.2551509e-39
1.9973862 -0.06501542 -7.5101852e-06 5.2551509e-39
2.00494 -0.065216511 -5.7220459e-06 5.2551509e-39
2.0125308 -0.065418623 -5.6028366e-06 5.2551509e-39
2.023989 -0.065723732 -6.2584877e-06 5.2551509e-39
2.0355189 -0.066030748 -7.0333481e-06 5.2551509e-39
2.0432506 -0.066236585 -5.8412552e-06 5.2551509e-39
2.0557055 -0.065238476 -6.6995622e-06 5.2551509e-39
2.0666697 -0.064638644 -5.6028366e-06 5.2551509e-39
2.0745513 -0.064843297 -6.5565109e-06 5.2551509e-39
2.0824656 -0.06504871 -4.4107437e-06 5.2551509e-39
2.0944197 -0.065359078 -5.9604645e-06 5.2551509e-39
2.1064506 -0.063423485 -8.225441e-06 5.2551509e-39
2.1145186 -0.063627549 -7.2717667e-06 5.2551509e-39
2.1226275 -0.063832678 -7.7486038e-06 5.2551509e-39
2.1348662 -0.064142242 -6.9737434e-06 5.2551509e-39
2.1471834 -0.064453781 -5.9604645e-06 5.2551509e-39
2.1554518 -0.064662971 -7.7486038e-06 5.2551509e-39
2.1637557 -0.064872995 -6.5565109e-06 5.2551509e-39
2.1721046 -0.067375913 -8.4638596e-06 5.2551509e-39
2.1861093 -0.066204228 -8.1459684e-06 5.2551509e-39
2.1973848 -0.065723643 -6.5565109e-06 5.2551509e-39
2.2058959 -0.06825313 -7.0333481e-06 5.2551509e-39
2.2490826 -0.06000258 -7.1525574e-06 5.2551509e-39
2.2578475 -0.062555537 -6.5565109e-06 5.2551509e-39
2.2666595 -0.060412094 -7.5101852e-06 5.2551509e-39
2.3204584 -0.066446401 -7.6293945e-06 5.2551509e-39
1.5486437 -0.054943573 -5.0067902e-06 6.730281e-39
1.5570878 -0.055174027 -5.2054725e-06 5.3473465e-39
1.5655746 -0.055405617 -3.695488e-06 5.3473465e-39
1.574123 -0.055638995 -6.2187514e-06 5.3473465e-39
1.5855937 -0.055952046 -6.0796738e-06 5.3473465e-39
1.5942543 -0.054281373 -5.8412552e-06 5.3473465e-39
1.6029735 -0.054513529 -5.4240227e-06 5.3473465e-39
1.6146777 -0.054825149 -4.7087669e-06 5.3473465e-39
1.626479 -0.055139385 -5.0663948e-06 5.3473465e-39
1.6353923 -0.055376764 -7.1525574e-06 5.3473465e-39
1.6443636 -0.055615619 -6.3180923e-06 5.3473465e-39
1.6564069 -0.053987842 -4.529953e-06 5.3473465e-39
1.6655022 -0.054223936 -3.6160152e-06 5.3473465e-39
1.674664 -0.054461841 -5.5829682e-06 5.3473465e-39
1.6838754 -0.054700989 -6.3180923e-06 5.3473465e-39
1.69315 -0.054941773 -6.4373016e-06 5.3473465e-39
1.705602 -0.055265028 -5.7816505e-06 5.3473465e-39
1.7150059 -0.055509131 -4.6491623e-06 5.3473465e-39
1.7240921 -0.056008756 -0.00049827277 5.3473465e-39
1.7340053 -0.054002378 -7.1525574e-06 5.3473465e-39
1.7435968 -0.054244969 -6.0796738e-06 5.3473465e-39
1.7564777 -0.054570787 -5.8114529e-06 5.3473465e-39
1.7662061 -0.054816846 -4.7683716e-06 5.3473465e-39
1.7760062 -0.055064753 -5.1259995e-06 5.3473465e-39
1.7858647 -0.055314168 -6.9141388e-06 5.3473465e-39
1.7957902 -0.055565201 -5.543232e-06 5.3473465e-39
1.805776 -0.055817816 -6.4373016e-06 5.3473465e-39
1.8151468 -0.055496901 -0.00076988415 5.3473465e-39
1.8259474 -0.054266766 -5.2452087e-06 5.3473465e-39
1.8361374 -0.054517746 -5.443891e-06 5.3473465e-39
1.8446249 -0.056644756 -0.001962529 5.3473465e-39
1.8532606 -0.05493949 -5.8412552e-06 5.3473465e-39
1.8636326 -0.05519497 -6.7949295e-06 5.3473465e-39
1.874063 -0.055451836 -5.4836273e-06 5.3473465e-39
1.8838701 -0.054852337 -5.7935713e-06 5.3473465e-39
1.8951468 -0.053863827 -7.1525574e-06 5.3473465e-39
1.905798 -0.054119073 -7.212162e-06 5.3473465e-39
1.9165123 -0.05437582 -6.6757202e-06 5.3473465e-39
1.9236979 -0.054548007 -6.3180923e-06 5.3473465e-39
1.9345429 -0.054807898 -6.4969063e-06 5.2551509e-39
1.9454516 -0.05506929 -5.4836273e-06 5.2551509e-39
1.9527702 -0.055244692 -6.3180923e-06 5.2551509e-39
1.9638134 -0.055509329 -6.2584877e-06 5.2551509e-39
1.9749248 -0.055775613 -6.9141388e-06 5.2551509e-39
1.9861202 -0.056043893 -6.5565109e-06 5.2551509e-39
1.9973862 -0.056313887 -7.5101852e-06 5.2551509e-39
2.00494 -0.056494866 -5.7220459e-06 5.2551509e-39
2.0125308 -0.0544913 -5.6028366e-06 5.2551509e-39
2.0239885 -0.054758251 -5.8611236e-06 5.2551509e-39
2.0355189 -0.055026919 -7.0333481e-06 5.2551509e-39
2.0432506 -0.055207029 -5.8412552e-06 5.2551509e-39
2.0541444 -0.054574333 -6.7710876e-06 5.2551509e-39
2.0666697 -0.05353114 -5.6028366e-06 5.2551509e-39
2.0745513 -0.053709555 -6.5565109e-06 5.2551509e-39
2.0824656 -0.053888626 -4.4107437e-06 5.2551509e-39
2.0944197 -0.054159213 -6.0200691e-06 5.2551509e-39
2.1064506 -0.05443155 -8.225441e-06 5.2551509e-39
2.1145186 -0.054614134 -7.2717667e-06 5.2551509e-39
2.1226275 -0.054797668 -7.7486038e-06 5.2551509e-39
2.1348662 -0.055074647 -6.9737434e-06 5.2551509e-39
2.1471834 -0.055353392 -5.9604645e-06 5.2551509e-39
2.1554518 -0.055540562 -7.7486038e-06 5.2551509e-39
2.163754 -0.055728413 -5.364418e-06 5.2551509e-39
2.1721046 -0.053625785 -8.4638596e-06 5.2551509e-39
2.1804893 -0.053809948 -7.2717667e-06 5.2551509e-39
2.2316766 -0.052602988 -5.1259995e-06 5.2551509e-39
2.2447209 -0.052880883 -7.0929527e-06 5.2551509e-39
2.255723 -0.053381529 -0.0005395271 5.2551509e-39
2.2666595 -0.055702835 -7.5101852e-06 5.2551509e-39
1.5486448 -0.045560263 -5.9604645e-06 6.730281e-39
1.5570883 -0.043880302 -5.7220459e-06 5.3473465e-39
1.5655746 -0.044077978 -3.695488e-06 5.3473465e-39
1.574123 -0.044277191 -6.2584877e-06 5.3473465e-39
1.5855945 -0.04454447 -6.7949295e-06 5.3473465e-39
1.594256 -0.044746283 -7.390976e-06 5.3473465e-39
1.6029743 -0.044949371 -6.1392784e-06 5.3473465e-39
1.6146785 -0.045222044 -5.364418e-06 5.3473465e-39
1.6264807 -0.045497041 -6.4969063e-06 5.3473465e-39
1.6353923 -0.045704678 -7.1525574e-06 5.3473465e-39
1.6443642 -0.045913696 -6.7551932e-06 5.3473465e-39
1.6564077 -0.044245854 -5.2452087e-06 5.3473465e-39
1.6655039 -0.044451714 -5.0067902e-06 5.3473465e-39
1.6746638 -0.044659041 -5.4836273e-06 5.3473465e-39
1.6838754 -0.044867538 -6.3180923e-06 5.3473465e-39
1.6931509 -0.04507748 -7.0929527e-06 5.3473465e-39
1.7056025 -0.045359276 -6.1690807e-06 5.3473465e-39
1.7150066 -0.045572106 -5.3048134e-06 5.3473465e-39
1.7244782 -0.045786478 -5.5134296e-06 5.3473465e-39
1.7340053 -0.044002075 -7.1525574e-06 5.3473465e-39
1.7435974 -0.04421277 -6.5565109e-06 5.3473465e-39
1.756478 -0.044495706 -6.0598054e-06 5.3473465e-39
1.7662072 -0.044709418 -5.6425729e-06 5.3473465e-39
1.7760066 -0.044924673 -5.3246818e-06 5.3473465e-39
1.7858623 -0.045141175 -5.0862632e-06 5.3473465e-39
1.7957906 -0.045359273 -5.7617822e-06 5.3473465e-39
1.8057766 -0.045578659 -6.8744025e-06 5.3473465e-39
1.8158327 -0.045799553 -6.2584877e-06 5.3473465e-39
1.8259474 -0.043960456 -5.2452087e-06 5.3473465e-39
1.8361368 -0.044177502 -5.0067902e-06 5.3473465e-39
1.8463862 -0.044395819 -4.8875809e-06 5.3473465e-39
1.8532606 -0.044542272 -5.8412552e-06 5.3473465e-39
1.8636327 -0.044763222 -6.7949295e-06 5.3473465e-39
1.874063 -0.04498538 -5.4836273e-06 5.3473465e-39
1.8845726 -0.045209251 -5.6624413e-06 5.3473465e-39
1.8951468 -0.045434523 -7.1525574e-06 5.3473465e-39
1.9057963 -0.045661345 -5.9008598e-06 5.3473465e-39
1.9165123 -0.045889627 -6.6757202e-06 5.3473465e-39
1.9236981 -0.046042681 -6.3180923e-06 5.2551509e-39
1.9345429 -0.046273693 -6.4969063e-06 5.2551509e-39
1.9454516 -0.044365231 -5.4836273e-06 5.2551509e-39
1.9527702 -0.044516277 -6.3180923e-06 5.2551509e-39
1.9638134 -0.044744153 -6.2584877e-06 5.2551509e-39
1.9749247 -0.044973452 -6.9141388e-06 5.2551509e-39
1.9861202 -0.045204476 -6.5565109e-06 5.2551509e-39
1.9973863 -0.045436967 -7.5101852e-06 5.2551509e-39
2.00494 -0.045592815 -5.7220459e-06 5.2551509e-39
2.0125308 -0.043563984 -5.6028366e-06 5.2551509e-39
2.0239882 -0.043792792 -5.6624413e-06 5.2551509e-39
2.0355189 -0.044023082 -7.0333481e-06 5.2551509e-39
2.0432506 -0.044177461 -5.8412552e-06 5.2551509e-39
2.054925 -0.044410612 -6.7353249e-06 5.2551509e-39
2.0666697 -0.044645131 -5.6028366e-06 5.2551509e-39
2.0745513 -0.044802558 -6.5565109e-06 5.2551509e-39
2.0824656 -0.044960566 -4.529953e-06 5.2551509e-39
2.0944197 -0.045199312 -6.0200691e-06 5.2551509e-39
2.1064506 -0.045439612 -8.225441e-06 5.2551509e-39
2.1145186 -0.045600716 -7.2717667e-06 5.2551509e-39
2.1226275 -0.045762658 -7.7486038e-06 5.2551509e-39
2.1348662 -0.046007056 -6.9737434e-06 5.2551509e-39
2.1471834 -0.046253003 -5.9604645e-06 5.2551509e-39
2.1554518 -0.046418153 -7.7486038e-06 5.2551509e-39
2.163754 -0.046583906 -5.364418e-06 5.2551509e-39
2.1721027 -0.046750665 -7.2717667e-06 5.2551509e-39
2.1804893 -0.044620872 -7.2717667e-06 5.2551509e-39
2.2316766 -0.045608968 -5.1259995e-06 5.2551509e-39
2.2490826 -0.045945011 -7.1525574e-06 5.2551509e-39
1.5486447 -0.036176901 -5.9604645e-06 6.730281e-39
1.5570881 -0.034468837 -5.7220459e-06 5.3473465e-39
1.5655746 -0.034638274 -3.695488e-06 5.3473465e-39
1.574122 -0.034808993 -5.3048134e-06 5.3473465e-39
1.5855945 -0.035038128 -6.7949295e-06 5.3473465e-39
1.5942562 -0.035211109 -7.390976e-06 5.3473465e-39
1.6029743 -0.035385191 -6.1392784e-06 5.3473465e-39
1.6146785 -0.035618909 -5.364418e-06 5.3473465e-39
1.6264807 -0.033926133 -6.4969063e-06 5.3473465e-39
1.6353923 -0.034098178 -7.1525574e-06 5.3473465e-39
1.6443645 -0.034271378 -6.9737434e-06 5.3473465e-39
1.6564078 -0.034503832 -5.2452087e-06 5.3473465e-39
1.6655039 -0.034679417 -5.0067902e-06 5.3473465e-39
1.6746635 -0.034856241 -5.1259995e-06 5.3473465e-39
1.683875 -0.035034075 -5.8809915e-06 5.3473465e-39
1.6931509 -0.035213161 -7.0929527e-06 5.3473465e-39
1.705603 -0.035453528 -6.5565109e-06 5.3473465e-39
1.7150074 -0.035635069 -5.9604645e-06 5.3473465e-39
1.7244787 -0.035817903 -5.8412552e-06 5.3473465e-39
1.734002 -0.034001656 -4.4107437e-06 5.3473465e-39
1.7435975 -0.034180548 -6.7949295e-06 5.3473465e-39
1.7564785 -0.034420624 -6.4969063e-06 5.3473465e-39
1.7662095 -0.034602009 -7.390976e-06 5.3473465e-39
1.7760071 -0.034784596 -5.7220459e-06 5.3473465e-39
1.7858613 -0.034968235 -4.1723251e-06 5.3473465e-39
1.795791 -0.035153344 -6.1988831e-06 5.3473465e-39
1.8057777 -0.035339516 -7.7486038e-06 5.3473465e-39
1.8158338 -0.035526931 -6.9737434e-06 5.3473465e-39
1.8259474 -0.035715409 -5.2452087e-06 5.3473465e-39
1.8361379 -0.035905354 -5.8412552e-06 5.3473465e-39
1.846388 -0.036096405 -6.1988831e-06 5.3473465e-39
1.8532606 -0.036224499 -5.8412552e-06 5.3473465e-39
1.8636335 -0.034331512 -7.4505806e-06 5.3473465e-39
1.8740641 -0.034518961 -6.3578286e-06 5.3473465e-39
1.8845733 -0.034707833 -6.0995421e-06 5.3473465e-39
1.8951468 -0.03489789 -7.1525574e-06 5.3473465e-39
1.9057956 -0.035089254 -5.3842864e-06 5.3473465e-39
1.9165134 -0.035281915 -7.470449e-06 5.2551509e-39
1.9236981 -0.03541103 -6.3180923e-06 5.2551509e-39
1.9345436 -0.035605963 -6.9737434e-06 5.2551509e-39
1.9454525 -0.033661198 -6.1392784e-06 5.2551509e-39
1.9527702 -0.033787854 -6.3180923e-06 5.2551509e-39
1.9638139 -0.033978991 -6.5565109e-06 5.2551509e-39
1.9749238 -0.034171272 -6.1988831e-06 5.2551509e-39
1.9861207 -0.034365069 -6.9141388e-06 5.2551509e-39
1.9973862 -0.034560055 -7.5101852e-06 5.2551509e-39
2.00494 -0.034690768 -5.7220459e-06 5.2551509e-39
2.0125308 -0.034822136 -5.6028366e-06 5.2551509e-39
2.0239882 -0.035020433 -5.6624413e-06 5.2551509e-39
2.035517 -0.035219967 -5.8412552e-06 5.2551509e-39
2.0432506 -0.035353817 -5.8412552e-06 5.2551509e-39
2.054925 -0.035555881 -6.7353249e-06 5.2551509e-39
2.0666697 -0.035759129 -5.6028366e-06 5.2551509e-39
2.0745513 -0.035895564 -6.5565109e-06 5.2551509e-39
2.0824659 -0.036032505 -4.6491623e-06 5.2551509e-39
2.0944197 -0.036239415 -6.0200691e-06 5.2551509e-39
2.1064496 -0.036447641 -7.5101852e-06 5.2551509e-39
2.1145186 -0.03658729 -7.2717667e-06 5.2551509e-39
2.1226275 -0.036727645 -7.7486038e-06 5.2551509e-39
2.1348665 -0.034672555 -6.9737434e-06 5.2551509e-39
2.1471834 -0.034877509 -5.9604645e-06 5.2551509e-39
2.1554518 -0.035015136 -7.7486038e-06 5.2551509e-39
2.163754 -0.035153266 -5.364418e-06 5.2551509e-39
2.1721008 -0.037583865 -6.0796738e-06 5.2551509e-39
2.1847043 -0.033199068 -7.9274178e-06 5.2551509e-39
2.1973848 -0.031095922 -6.5565109e-06 5.2551509e-39
1.5486447 -0.024916867 -5.9604645e-06 6.730281e-39
1.5561496 -0.025040029 -0.00026408138 5.3473465e-39
1.5655746 -0.025198571 -3.695488e-06 5.3473465e-39
1.574122 -0.02534084 -5.3048134e-06 5.3473465e-39
1.5855945 -0.025531782 -6.7949295e-06 5.3473465e-39
1.594256 -0.025675936 -7.390976e-06 5.3473465e-39
1.6029743 -0.025821 -6.1392784e-06 5.3473465e-39
1.6146784 -0.026015768 -5.364418e-06 5.3473465e-39
1.6264806 -0.024283707 -6.4969063e-06 5.3473465e-39
1.6353908 -0.024426045 -5.7220459e-06 5.3473465e-39
1.6443645 -0.024569426 -6.9737434e-06 5.3473465e-39
1.6564078 -0.024761803 -5.2452087e-06 5.3473465e-39
1.6655039 -0.024907118 -5.0067902e-06 5.3473465e-39
1.6746635 -0.025053453 -5.1259995e-06 5.3473465e-39
1.6838738 -0.025200594 -5.0067902e-06 5.3473465e-39
1.6931509 -0.025348835 -7.0929527e-06 5.3473465e-39
1.705603 -0.025547761 -6.5565109e-06 5.3473465e-39
1.7150074 -0.025697999 -5.9604645e-06 5.3473465e-39
1.7244787 -0.025849309 -5.8412552e-06 5.3473465e-39
1.734002 -0.024001373 -4.4107437e-06 5.3473465e-39
1.7434231 -0.024941551 -3.1430802e-05 5.3473465e-39
1.7564787 -0.024345525 -6.4969063e-06 5.3473465e-39
1.7662095 -0.024494519 -7.390976e-06 5.3473465e-39
1.7760072 -0.0246445 -5.7220459e-06 5.3473465e-39
1.7858614 -0.024795348 -4.1723251e-06 5.3473465e-39
1.795791 -0.024947403 -6.1988831e-06 5.3473465e-39
1.8057777 -0.025100328 -7.7486038e-06 5.3473465e-39
1.8158339 -0.025254279 -6.9737434e-06 5.3473465e-39
1.8259474 -0.025409097 -5.2452087e-06 5.3473465e-39
1.8361379 -0.025565125 -5.8412552e-06 5.3473465e-39
1.846388 -0.025722062 -6.1988831e-06 5.3473465e-39
1.8532606 -0.025827279 -5.8412552e-06 5.3473465e-39
1.8636334 -0.023899764 -7.4505806e-06 5.3473465e-39
1.8740647 -0.024052516 -6.7949295e-06 5.3473465e-39
1.8845736 -0.024206407 -6.3180923e-06 5.3473465e-39
1.8951468 -0.024361257 -7.1525574e-06 5.3473465e-39
1.9057952 -0.024517175 -5.1259995e-06 5.2551509e-39
1.9165132 -0.024674162 -7.2717667e-06 5.2551509e-39
1.9236982 -0.024779372 -6.3180923e-06 5.2551509e-39
1.9345438 -0.024938213 -7.212162e-06 5.2551509e-39
1.9454534 -0.025097972 -6.7949295e-06 5.2551509e-39
1.9527702 -0.025205119 -6.3180923e-06 5.2551509e-39
1.9638143 -0.025366861 -6.8545341e-06 5.2551509e-39
1.974923 -0.025529526 -5.4836273e-06 5.2551509e-39
1.9861212 -0.025693547 -7.2717667e-06 5.2551509e-39
1.9973862 -0.025858518 -7.5101852e-06 5.2551509e-39
2.0049434 -0.025969205 -8.225441e-06 5.2551509e-39
2.0125308 -0.026080281 -5.6028366e-06 5.2551509e-39
2.023989 -0.026248094 -6.3180923e-06 5.2551509e-39
2.0355189 -0.026416954 -7.0333481e-06 5.2551509e-39
2.0432506 -0.026530167 -5.8412552e-06 5.2551509e-39
2.0549259 -0.024487479 -7.390976e-06 5.2551509e-39
2.0666714 -0.024651662 -6.7949295e-06 5.2551509e-39
2.0745513 -0.024761816 -6.5565109e-06 5.2551509e-39
2.0824671 -0.02487245 -5.443891e-06 5.2551509e-39
2.0944211 -0.02503957 -6.8545341e-06 5.2551509e-39
2.1064484 -0.025207704 -6.7949295e-06 5.2551509e-39
2.1145198 -0.025320547 -8.066495e-06 5.2551509e-39
2.1226275 -0.025433881 -7.7486038e-06 5.2551509e-39
2.1348672 -0.023338076 -7.6293945e-06 5.2551509e-39
2.1471844 -0.023502043 -6.4969063e-06 5.2551509e-39
2.1554518 -0.023612125 -7.7486038e-06 5.2551509e-39
2.1637549 -0.023722647 -5.9604645e-06 5.2551509e-39
2.1889191 -0.024057698 -8.5830688e-06 5.2551509e-39
2.1973858 -0.024170399 -7.1525574e-06 5.2551509e-39
2.2058959 -0.024283696 -7.0333481e-06 5.2551509e-39
2.415498 -0.026685633 -0.0011859032 5.2551509e-39
2.4234633 -0.027180258 -8.5830688e-06 5.2551509e-39
1.5486448 -0.015533505 -5.9604645e-06 6.730281e-39
1.5576526 -0.014522923 -5.7458878e-06 5.3473465e-39
1.5655746 -0.013870928 -3.695488e-06 5.3473465e-39
1.5741221 -0.013979052 -5.3048134e-06 5.3473465e-39
1.5855933 -0.014124147 -5.8809915e-06 5.3473465e-39
1.594256 -0.014233724 -7.390976e-06 5.3473465e-39
1.6029743 -0.014343977 -6.1392784e-06 5.3473465e-39
1.6146784 -0.014491998 -5.364418e-06 5.3473465e-39
1.6264807 -0.01464128 -6.4969063e-06 5.3473465e-39
1.635389 -0.014753927 -4.2915344e-06 5.3473465e-39
1.6443645 -0.014867477 -6.9737434e-06 5.3473465e-39
1.6564078 -0.015019775 -5.2452087e-06 5.3473465e-39
1.6655039 -0.015134815 -5.0067902e-06 5.3473465e-39
1.6746635 -0.015250664 -5.1259995e-06 5.3473465e-39
1.6838738 -0.01536715 -5.0067902e-06 5.3473465e-39
1.6931497 -0.015484485 -6.1790147e-06 5.3473465e-39
1.7056031 -0.015641989 -6.5565109e-06 5.3473465e-39
1.7150074 -0.01576093 -5.9604645e-06 5.3473465e-39
1.7244787 -0.015880715 -5.8412552e-06 5.3473465e-39
1.734002 -0.014001088 -4.4107437e-06 5.3473465e-39
1.7435968 -0.014116073 -6.1392784e-06 5.3473465e-39
1.7564787 -0.014270425 -6.4969063e-06 5.3473465e-39
1.7662095 -0.01438703 -7.390976e-06 5.3473465e-39
1.7760072 -0.014504407 -5.7220459e-06 5.3473465e-39
1.7858613 -0.014622461 -4.1723251e-06 5.3473465e-39
1.795791 -0.014741461 -6.1988831e-06 5.3473465e-39
1.8057777 -0.01486114 -7.7486038e-06 5.3473465e-39
1.8158338 -0.014981627 -6.9737434e-06 5.3473465e-39
1.8259474 -0.015102789 -5.2452087e-06 5.3473465e-39
1.8361379 -0.015224897 -5.8412552e-06 5.3473465e-39
1.846388 -0.015347715 -6.1988831e-06 5.3473465e-39
1.8532606 -0.015430061 -5.8412552e-06 5.3473465e-39
1.8636332 -0.015554357 -7.1227551e-06 5.3473465e-39
1.8740647 -0.015679345 -6.7949295e-06 5.3473465e-39
1.8845736 -0.015805256 -6.3180923e-06 5.3473465e-39
1.8951468 -0.015931953 -7.1525574e-06 5.3473465e-39
1.9057953 -0.01605952 -5.1259995e-06 5.2551509e-39
1.9165123 -0.016187947 -6.6757202e-06 5.2551509e-39
1.9236982 -0.016274044 -6.3180923e-06 5.2551509e-39
1.935269 -0.015131116 -7.1763993e-06 5.2551509e-39
1.9454533 -0.014393904 -6.7949295e-06 5.2551509e-39
1.9527702 -0.014476701 -6.3180923e-06 5.2551509e-39
1.9638143 -0.014601682 -6.8545341e-06 5.2551509e-39
1.974923 -0.014727379 -5.4836273e-06 5.2551509e-39
1.9861206 -0.01485411 -6.8346658e-06 5.2551509e-39
1.9973863 -0.014981601 -7.5101852e-06 5.2551509e-39
2.0049434 -0.015067133 -8.225441e-06 5.2551509e-39
2.0125308 -0.015152965 -5.6028366e-06 5.2551509e-39
2.023989 -0.015282636 -6.3180923e-06 5.2551509e-39
2.0355189 -0.015413119 -7.0333481e-06 5.2551509e-39
2.0432506 -0.015500602 -5.8412552e-06 5.2551509e-39
2.054925 -0.013419037 -6.7651272e-06 5.2551509e-39
2.0666714 -0.013544142 -6.7949295e-06 5.2551509e-39
2.0745513 -0.013628067 -6.5565109e-06 5.2551509e-39
2.0824678 -0.013712373 -5.8412552e-06 5.2551509e-39
2.0944214 -0.013839704 -7.2717667e-06 5.2551509e-39
2.1064484 -0.013967793 -6.7949295e-06 5.2551509e-39
2.1145167 -0.014053719 -6.0796738e-06 5.2551509e-39
2.1226275 -0.01414012 -7.7486038e-06 5.2551509e-39
2.1348674 -0.014270478 -7.6293945e-06 5.2551509e-39
2.1471853 -0.014401667 -7.0333481e-06 5.2551509e-39
2.1554518 -0.014489716 -7.7486038e-06 5.2551509e-39
2.1637557 -0.014578152 -6.5565109e-06 5.2551509e-39
2.1889172 -0.014846146 -7.4505806e-06 5.2551509e-39
2.1971152 -0.016375659 -0.00010814195 5.2551509e-39
2.2058959 -0.015026972 -7.0333481e-06 5.2551509e-39
2.2144508 -0.015118107 -8.7022781e-06 5.2551509e-39
2.2230399 -0.015209554 -5.2452087e-06 5.2551509e-39
2.4138515 -0.019694436 -6.0796738e-06 5.2551509e-39
2.4234633 -0.019803233 -8.5830688e-06 5.2551509e-39
1.5486447 -0.0061501465 -5.9604645e-06 6.730281e-39
1.5565237 -0.0054751458 -5.6982039e-06 5.3473465e-39
1.5655746 -0.0044312282 -3.695488e-06 5.3473465e-39
