# .PCD v0.7 - Point Cloud Data file format
VERSION 0.7
FIELDS x y z rgb
SIZE 4 4 4 4
TYPE F F F F
COUNT 1 1 1 1
WIDTH 1009
HEIGHT 1
VIEWPOINT 0 0 0 1 0 0 0
POINTS 1009
DATA ascii
0.42881218 -0.37221888 0.81495577 1.518441e-38
0.42508215 -0.36485332 0.8151024 1.518441e-38
0.41873521 -0.35260791 0.81522483 1.518441e-38
0.42130977 -0.35743102 0.8153882 1.518441e-38
0.40289041 -0.34015715 0.81599122 1.518441e-38
0.41460842 -0.34498554 0.81518495 1.518441e-38
0.40823826 -0.33311707 0.8150245 1.518441e-38
0.41103595 -0.33835259 0.81565559 1.518441e-38
0.40395787 -0.32509369 0.81463993 1.518441e-38
0.39835244 -0.31330001 0.81583846 1.518441e-38
0.40068203 -0.31840652 0.81594443 1.518441e-38
0.38964614 -0.30836409 0.81715459 1.518441e-38
0.3947655 -0.30469614 0.81524837 1.518441e-38
0.39400777 -0.29514071 0.81486958 1.518441e-38
0.39827842 -0.28851393 0.8173821 1.518441e-38
0.40507433 -0.28438845 0.81520087 1.518441e-38
0.41125041 -0.28071067 0.81518829 1.518441e-38
0.41618294 -0.27782419 0.81507397 1.518441e-38
0.42505074 -0.27342802 0.81486708 1.518441e-38
0.43225387 -0.27072078 0.81420815 1.518441e-38
0.43667403 -0.26889992 0.81439507 1.518441e-38
0.44021869 -0.26804543 0.8129884 1.518441e-38
0.45361513 -0.41336116 0.82233208 1.518441e-38
0.44697425 -0.40395391 0.82577717 1.518441e-38
0.45064762 -0.40883192 0.82744771 1.518441e-38
0.43921781 -0.3912729 0.82562339 1.518441e-38
0.44237053 -0.39569253 0.82641488 1.518441e-38
0.45553547 -0.39821589 0.82320577 1.518441e-38
0.4363457 -0.38518131 0.82612711 1.518441e-38
0.42881423 -0.37227708 0.8251394 1.518441e-38
0.43172231 -0.37702569 0.82622015 1.518441e-38
0.42540097 -0.36530045 0.82520747 1.518441e-38
0.41864589 -0.35235855 0.82465327 1.518441e-38
0.42153251 -0.35716715 0.82580346 1.518441e-38
0.41534558 -0.34537068 0.82485843 1.518441e-38
0.40852717 -0.33297616 0.82494724 1.518441e-38
0.41134346 -0.33799419 0.82539314 1.518441e-38
0.39902687 -0.32294524 0.8285414 1.518441e-38
0.40430999 -0.32453784 0.82484257 1.518441e-38
0.39941502 -0.31169501 0.82403105 1.518441e-38
0.40139881 -0.31644961 0.82537019 1.518441e-38
0.39708862 -0.30515987 0.82474416 1.518441e-38
0.39446643 -0.29411724 0.82536554 1.518441e-38
0.39798892 -0.28883871 0.82530242 1.518441e-38
0.40518671 -0.28455049 0.8248831 1.518441e-38
0.41160616 -0.28080842 0.8251971 1.518441e-38
0.41652322 -0.27783853 0.82509524 1.518441e-38
0.42446154 -0.27305844 0.82548016 1.518441e-38
0.43090522 -0.27033156 0.82131702 1.518441e-38
0.4410902 -0.27007326 0.82187676 1.518441e-38
0.42956027 -0.26985022 0.82719803 1.518441e-38
0.43324006 -0.26829931 0.82553899 1.518441e-38
0.46481788 -0.42266861 0.83736551 1.518441e-38
0.45684698 -0.41408053 0.83497792 1.518441e-38
0.46261027 -0.41768935 0.83893651 1.518441e-38
0.44864142 -0.40226659 0.83266687 1.518441e-38
0.45236766 -0.40598923 0.83583045 1.518441e-38
0.48327842 -0.40457329 0.83708465 1.518441e-38
0.44549468 -0.39496702 0.83484447 1.518441e-38
0.45076835 -0.39986461 0.83993548 1.518441e-38
0.43818712 -0.38304517 0.83373755 1.518441e-38
0.44172791 -0.38701147 0.83649492 1.518441e-38
0.42931893 -0.37114808 0.83156395 1.518441e-38
0.43413311 -0.37510872 0.83582157 1.518441e-38
0.42715964 -0.3642025 0.83513898 1.518441e-38
0.43175015 -0.36543068 0.83877373 1.518441e-38
0.4192856 -0.3515459 0.83291507 1.518441e-38
0.42499235 -0.35491318 0.83682293 1.518441e-38
0.43075639 -0.35672629 0.83965909 1.518441e-38
0.45083079 -0.35454839 0.83417839 1.518441e-38
0.41717735 -0.34447962 0.83481824 1.518441e-38
0.42403883 -0.34542617 0.83840466 1.518441e-38
0.47884846 -0.34212235 0.83866102 1.518441e-38
0.48492444 -0.34845215 0.83455396 1.518441e-38
0.40889338 -0.33178639 0.83380765 1.518441e-38
0.41502744 -0.33491522 0.83620036 1.518441e-38
0.42239484 -0.33562291 0.83893538 1.518441e-38
0.47596508 -0.33573499 0.83623821 1.518441e-38
0.40649763 -0.32456884 0.83458906 1.518441e-38
0.41492912 -0.32500279 0.83782607 1.518441e-38
0.42105642 -0.32596526 0.83953464 1.518441e-38
0.4452967 -0.32613853 0.83901387 1.518441e-38
0.46564737 -0.32225725 0.83886659 1.518441e-38
0.47183082 -0.32735497 0.83541626 1.518441e-38
0.4046022 -0.31468847 0.83657962 1.518441e-38
0.41378781 -0.31632283 0.83913684 1.518441e-38
0.45897579 -0.31423545 0.8393116 1.518441e-38
0.46275043 -0.31622028 0.83783793 1.518441e-38
0.39846161 -0.30379596 0.8352192 1.518441e-38
0.40360597 -0.3051942 0.83915383 1.518441e-38
0.4119263 -0.30034158 0.83990324 1.518441e-38
0.45683986 -0.3060697 0.8383702 1.518441e-38
0.46150845 -0.30905306 0.83463866 1.518441e-38
0.39795265 -0.2956433 0.83376038 1.518441e-38
0.4044956 -0.29457611 0.83795238 1.518441e-38
0.4135946 -0.29484257 0.83924544 1.518441e-38
0.44779211 -0.29019952 0.83969456 1.518441e-38
0.45541143 -0.29950666 0.83418113 1.518441e-38
0.39933336 -0.28915733 0.83132279 1.518441e-38
0.40551516 -0.28614071 0.83474773 1.518441e-38
0.41453421 -0.28428441 0.83783925 1.518441e-38
0.42008889 -0.28212747 0.83983064 1.518441e-38
0.44350794 -0.28375551 0.83929485 1.518441e-38
0.41702077 -0.2784479 0.83379847 1.518441e-38
0.42515546 -0.27555221 0.83538866 1.518441e-38
0.43461156 -0.27395797 0.83678848 1.518441e-38
0.44114447 -0.27632576 0.83774644 1.518441e-38
0.4343363 -0.26908866 0.8315388 1.518441e-38
0.47069645 -0.42075333 0.84038162 1.518441e-38
0.45843577 -0.4106884 0.84036356 1.518441e-38
0.46600288 -0.41386518 0.84145868 1.518441e-38
0.4739143 -0.41328776 0.84337801 1.518441e-38
0.45657486 -0.40407732 0.84176499 1.518441e-38
0.46470526 -0.40497905 0.84285742 1.518441e-38
0.47473636 -0.40508464 0.84433335 1.518441e-38
0.48350468 -0.40366119 0.84586644 1.518441e-38
0.49030751 -0.40082359 0.84605515 1.518441e-38
0.44805694 -0.39301559 0.84149843 1.518441e-38
0.45492491 -0.39508617 0.84254289 1.518441e-38
0.46525928 -0.39498702 0.84375602 1.518441e-38
0.47511765 -0.39494234 0.84523219 1.518441e-38
0.48467854 -0.39514911 0.84621054 1.518441e-38
0.49398676 -0.39385399 0.84492385 1.518441e-38
0.50149584 -0.39103508 0.84331936 1.518441e-38
0.44572622 -0.38448808 0.84254396 1.518441e-38
0.45497242 -0.38486955 0.84367031 1.518441e-38
0.46496373 -0.3852852 0.84461462 1.518441e-38
0.47496405 -0.38515222 0.84593117 1.518441e-38
0.48507014 -0.38476771 0.84572196 1.518441e-38
0.49519312 -0.38527706 0.84416401 1.518441e-38
0.50170612 -0.38792863 0.84308738 1.518441e-38
0.43764138 -0.37384892 0.84162289 1.518441e-38
0.44469607 -0.37500226 0.84346312 1.518441e-38
0.4550119 -0.37484324 0.84454012 1.518441e-38
0.46515012 -0.37490726 0.84551209 1.518441e-38
0.47471893 -0.37522268 0.84596771 1.518441e-38
0.48473582 -0.37522975 0.84515154 1.518441e-38
0.4928863 -0.37545818 0.8439967 1.518441e-38
0.43623942 -0.36469147 0.84188324 1.518441e-38
0.44448474 -0.36504176 0.84379792 1.518441e-38
0.45438698 -0.36483535 0.84515584 1.518441e-38
0.46456298 -0.36516154 0.84585232 1.518441e-38
0.47482669 -0.36488917 0.84541363 1.518441e-38
0.48448372 -0.36537459 0.84457004 1.518441e-38
0.49036103 -0.36856982 0.84405196 1.518441e-38
0.43476817 -0.35474092 0.84197611 1.518441e-38
0.44472748 -0.35522768 0.8440544 1.518441e-38
0.45498499 -0.35472161 0.84514976 1.518441e-38
0.46488979 -0.35500365 0.84538263 1.518441e-38
0.47508353 -0.35517028 0.84480435 1.518441e-38
0.48254353 -0.35546529 0.84374684 1.518441e-38
0.4283821 -0.34309897 0.84065074 1.518441e-38
0.43453866 -0.34506655 0.84250629 1.518441e-38
0.44432086 -0.34506711 0.84407318 1.518441e-38
0.45476589 -0.3449052 0.84484088 1.518441e-38
0.46537876 -0.34502938 0.84474438 1.518441e-38
0.47436118 -0.34559461 0.84396237 1.518441e-38
0.48069075 -0.3476415 0.84142941 1.518441e-38
0.42717379 -0.33460036 0.84116888 1.518441e-38
0.43502897 -0.33490932 0.84291476 1.518441e-38
0.44504735 -0.33513391 0.8440702 1.518441e-38
0.45486215 -0.3352859 0.84450698 1.518441e-38
0.46514863 -0.33510917 0.84404266 1.518441e-38
0.47176147 -0.33720997 0.84279776 1.518441e-38
0.42585188 -0.32460344 0.84160089 1.518441e-38
0.43468419 -0.32509431 0.84307051 1.518441e-38
0.44439676 -0.32505772 0.84387612 1.518441e-38
0.45459747 -0.32497269 0.84406793 1.518441e-38
0.4633716 -0.32636648 0.84225357 1.518441e-38
0.41681507 -0.31332067 0.84060693 1.518441e-38
0.42520306 -0.31491759 0.84216607 1.518441e-38
0.43525046 -0.31506047 0.8432048 1.518441e-38
0.44491148 -0.31481272 0.84354258 1.518441e-38
0.453798 -0.31559238 0.84249753 1.518441e-38
0.46009189 -0.31934637 0.84031665 1.518441e-38
0.40668029 -0.30459291 0.84077877 1.518441e-38
0.4151344 -0.30493751 0.84096307 1.518441e-38
0.42470559 -0.30466932 0.84233737 1.518441e-38
0.43520182 -0.30536404 0.84236908 1.518441e-38
0.44523937 -0.30514297 0.84215105 1.518441e-38
0.45217368 -0.30572948 0.84161872 1.518441e-38
0.40492105 -0.29157224 0.84615451 1.518441e-38
0.41863155 -0.29552072 0.84038937 1.518441e-38
0.42511517 -0.29497516 0.84200859 1.518441e-38
0.43481046 -0.29488742 0.8432489 1.518441e-38
0.44466591 -0.29520434 0.84187973 1.518441e-38
0.45132494 -0.29964924 0.8412149 1.518441e-38
0.41986126 -0.28739509 0.84013414 1.518441e-38
0.42536199 -0.28500772 0.8412624 1.518441e-38
0.4345623 -0.28483143 0.84234375 1.518441e-38
0.44227412 -0.287323 0.84103829 1.518441e-38
0.42590263 -0.27974126 0.84006619 1.518441e-38
0.43450087 -0.2794697 0.84019315 1.518441e-38
0.40803564 -0.30334413 0.85207587 1.518441e-38
0.4137581 -0.30006912 0.85007423 1.518441e-38
0.6288324 -0.30110896 0.63638967 2.3416921e-38
0.63192397 -0.3037712 0.63685507 2.3416921e-38
0.6246962 -0.29513842 0.63516033 2.3416921e-38
0.61746925 -0.28377721 0.63460308 2.3416921e-38
0.62096906 -0.28891802 0.63581121 2.3416921e-38
0.60823292 -0.27197161 0.6335755 2.3416921e-38
0.61231041 -0.27660593 0.63534898 2.3416921e-38
0.59912705 -0.26140153 0.63050103 2.3416921e-38
0.60365528 -0.2655794 0.63535351 2.3416921e-38
0.59557408 -0.25543889 0.63505918 2.3416921e-38
0.58689511 -0.24432977 0.63509458 2.3416921e-38
0.59086233 -0.24921632 0.63567054 2.3416921e-38
0.57736677 -0.23326796 0.63484329 2.3416921e-38
0.58161521 -0.2380576 0.63544685 2.3416921e-38
0.56780487 -0.22204874 0.63546151 2.3416921e-38
0.57206416 -0.22711584 0.63444114 2.3416921e-38
0.55896348 -0.21091917 0.63435113 2.3416921e-38
0.56309539 -0.21615319 0.63489062 2.3416921e-38
0.5544408 -0.20480743 0.63532555 2.3416921e-38
0.54762024 -0.19439721 0.63493806 2.3416921e-38
0.55073541 -0.19881026 0.63792235 2.3416921e-38
0.53933632 -0.18049368 0.6314522 2.3416921e-38
0.54218662 -0.18527615 0.63513947 2.3416921e-38
0.52772993 -0.17988284 0.63220143 2.3416921e-38
0.53724229 -0.17457259 0.63526708 2.3416921e-38
0.54010808 -0.17930178 0.63999951 2.3416921e-38
0.53823167 -0.16884242 0.63578606 2.3416921e-38
0.54487878 -0.16533177 0.63534606 2.3416921e-38
0.55295867 -0.16137432 0.634381 2.3416921e-38
0.55772865 -0.15885046 0.63480026 2.3416921e-38
0.56529808 -0.1545803 0.63496143 2.3416921e-38
0.57170796 -0.15093812 0.63683069 2.3416921e-38
0.57587755 -0.14189281 0.63558382 2.3416921e-38
0.6270864 -0.30085322 0.64613628 2.3416921e-38
0.63187003 -0.30444694 0.64952624 2.3416921e-38
0.61396301 -0.29255629 0.64690679 2.3416921e-38
0.62548494 -0.29448691 0.6451441 2.3416921e-38
0.61826652 -0.28247327 0.64451456 2.3416921e-38
0.62167042 -0.28714934 0.64574629 2.3416921e-38
0.60916454 -0.27057672 0.64228272 2.3416921e-38
0.61379296 -0.27586502 0.64489442 2.3416921e-38
0.60498321 -0.26520067 0.64513242 2.3416921e-38
0.59616143 -0.25421292 0.64450336 2.3416921e-38
0.60024303 -0.25915796 0.64669538 2.3416921e-38
0.58758205 -0.24321909 0.64469761 2.3416921e-38
0.5916329 -0.24826282 0.64550543 2.3416921e-38
0.57817888 -0.23211937 0.6453687 2.3416921e-38
0.58252347 -0.23700413 0.6453768 2.3416921e-38
0.56889713 -0.22221868 0.6441049 2.3416921e-38
0.57325321 -0.22679877 0.64498734 2.3416921e-38
0.55932248 -0.21038911 0.64476258 2.3416921e-38
0.56352359 -0.21559307 0.64512241 2.3416921e-38
0.55545366 -0.20479555 0.64460343 2.3416921e-38
0.54775172 -0.19326842 0.64522058 2.3416921e-38
0.55116683 -0.19837128 0.64422655 2.3416921e-38
0.54312587 -0.18495552 0.64498109 2.3416921e-38
0.53822798 -0.17379187 0.64498192 2.3416921e-38
0.54051411 -0.17900786 0.64650416 2.3416921e-38
0.53801179 -0.1689861 0.64465213 2.3416921e-38
0.54462385 -0.16569307 0.64416087 2.3416921e-38
0.55324799 -0.16136903 0.64355254 2.3416921e-38
0.55865538 -0.15869635 0.64269203 2.3416921e-38
0.56465393 -0.15574379 0.64301521 2.3416921e-38
0.57278788 -0.15155502 0.64219809 2.3416921e-38
0.63325423 -0.31015903 0.65123957 2.3416921e-38
0.63516712 -0.3034859 0.6530515 2.3416921e-38
0.64070004 -0.3059274 0.65637898 2.3416921e-38
0.62771708 -0.2943272 0.65157872 2.3416921e-38
0.63218594 -0.29796642 0.6534245 2.3416921e-38
0.61936092 -0.28207675 0.65442663 2.3416921e-38
0.62256402 -0.28654221 0.6532436 2.3416921e-38
0.61435246 -0.27481705 0.65521961 2.3416921e-38
0.60553008 -0.26410729 0.65493995 2.3416921e-38
0.61030024 -0.26942298 0.65686846 2.3416921e-38
0.59704977 -0.25369114 0.65478128 2.3416921e-38
0.60092986 -0.25813037 0.65647584 2.3416921e-38
0.58823204 -0.24251403 0.65458685 2.3416921e-38
0.59193456 -0.24707799 0.65518308 2.3416921e-38
0.57876718 -0.23101914 0.65396833 2.3416921e-38
0.58336502 -0.23643602 0.65524262 2.3416921e-38
0.56848067 -0.22022499 0.65003908 2.3416921e-38
0.57388461 -0.22515701 0.65490019 2.3416921e-38
0.5597378 -0.21019588 0.65094125 2.3416921e-38
0.56517041 -0.21527568 0.65573478 2.3416921e-38
0.55636042 -0.20516863 0.65503973 2.3416921e-38
0.54811895 -0.19313495 0.65572351 2.3416921e-38
0.55118573 -0.19805011 0.65575433 2.3416921e-38
0.54399604 -0.18536706 0.65465814 2.3416921e-38
0.53829598 -0.17368366 0.6551491 2.3416921e-38
0.54076576 -0.1788532 0.65396267 2.3416921e-38
0.53814858 -0.16740179 0.65646827 2.3416921e-38
0.54717159 -0.15756777 0.65853637 2.3416921e-38
0.55721205 -0.1530309 0.65831351 2.3416921e-38
0.5653019 -0.15146068 0.65334117 2.3416921e-38
0.56737077 -0.14881134 0.65815175 2.3416921e-38
0.57235193 -0.14819553 0.65562582 2.3416921e-38
0.63561511 -0.30262747 0.66642153 2.3416921e-38
0.62641799 -0.29288048 0.66662544 2.3416921e-38
0.63275331 -0.2964474 0.66525525 2.3416921e-38
0.61923599 -0.28126562 0.66448176 2.3416921e-38
0.62205142 -0.28622526 0.6656183 2.3416921e-38
0.61590374 -0.27535561 0.66530043 2.3416921e-38
0.6071589 -0.26404107 0.66480291 2.3416921e-38
0.61120683 -0.26891255 0.66493577 2.3416921e-38
0.59752333 -0.25218141 0.66503882 2.3416921e-38
0.60190737 -0.25756297 0.66518092 2.3416921e-38
0.58856696 -0.24111561 0.66394168 2.3416921e-38
0.59271032 -0.24611333 0.66513729 2.3416921e-38
0.57911193 -0.23032726 0.66014278 2.3416921e-38
0.58395183 -0.23509099 0.66532809 2.3416921e-38
0.57558948 -0.22497529 0.66499436 2.3416921e-38
0.56656748 -0.21441691 0.66515607 2.3416921e-38
0.57132149 -0.2192166 0.66747981 2.3416921e-38
0.55694294 -0.20388213 0.66494298 2.3416921e-38
0.56147158 -0.20869559 0.66585833 2.3416921e-38
0.54864275 -0.1921175 0.66447145 2.3416921e-38
0.55198908 -0.19732928 0.66481715 2.3416921e-38
0.54418868 -0.18477643 0.66489571 2.3416921e-38
0.53859103 -0.17324765 0.66447824 2.3416921e-38
0.54102248 -0.17725348 0.66708452 2.3416921e-38
0.53837067 -0.16547371 0.66473246 2.3416921e-38
0.54135215 -0.16094595 0.66510314 2.3416921e-38
0.54605067 -0.15779071 0.66567475 2.3416921e-38
0.55445075 -0.15295377 0.6659292 2.3416921e-38
0.5651204 -0.15020791 0.66677266 2.3416921e-38
0.56519312 -0.14945231 0.66520202 2.3416921e-38
0.57461846 -0.14849296 0.66522467 2.3416921e-38
0.58079112 -0.14893304 0.66847849 2.3416921e-38
0.63673097 -0.30284452 0.67519391 2.3416921e-38
0.6271134 -0.29312479 0.67550933 2.3416921e-38
0.63169187 -0.29803187 0.67452466 2.3416921e-38
0.61935592 -0.28028697 0.67467177 2.3416921e-38
0.62220836 -0.28525218 0.67486185 2.3416921e-38
0.61627322 -0.27476224 0.67529172 2.3416921e-38
0.60756242 -0.26298463 0.67505622 2.3416921e-38
0.61207461 -0.26834098 0.67553145 2.3416921e-38
0.59887379 -0.25226444 0.67460912 2.3416921e-38
0.60273731 -0.25694144 0.67535436 2.3416921e-38
0.58892888 -0.24006806 0.67129797 2.3416921e-38
0.59339142 -0.24525145 0.67484236 2.3416921e-38
0.58525336 -0.23465058 0.67493606 2.3416921e-38
0.57710564 -0.22426455 0.67468703 2.3416921e-38
0.58135867 -0.22924007 0.67680669 2.3416921e-38
0.56681168 -0.21236311 0.67442966 2.3416921e-38
0.57186842 -0.2176159 0.67596471 2.3416921e-38
0.55785048 -0.20242418 0.67565036 2.3416921e-38
0.562406 -0.20758879 0.67460752 2.3416921e-38
0.54893315 -0.19205324 0.67523897 2.3416921e-38
0.55276471 -0.19685552 0.67534852 2.3416921e-38
0.54583681 -0.18520689 0.67500794 2.3416921e-38
0.53984904 -0.17051566 0.67626655 2.3416921e-38
0.5419783 -0.17570406 0.67505753 2.3416921e-38
0.53846723 -0.16553284 0.6750114 2.3416921e-38
0.54123253 -0.16097546 0.67414868 2.3416921e-38
0.54633313 -0.15764631 0.67554367 2.3416921e-38
0.5548926 -0.15320103 0.67501527 2.3416921e-38
0.56176513 -0.15050066 0.67587662 2.3416921e-38
0.5653643 -0.14880122 0.67768413 2.3416921e-38
0.57724488 -0.14982574 0.67035049 2.3416921e-38
0.63667661 -0.30067191 0.68162805 2.3416921e-38
0.64089304 -0.30335718 0.68197966 2.3416921e-38
0.62672657 -0.29246879 0.68527424 2.3416921e-38
0.63215441 -0.29723725 0.68418074 2.3416921e-38
0.61984301 -0.28075805 0.68430197 2.3416921e-38
0.62275964 -0.28584769 0.68544489 2.3416921e-38
0.61691415 -0.27506196 0.68548012 2.3416921e-38
0.6080665 -0.26215598 0.68623221 2.3416921e-38
0.61194712 -0.26718539 0.6845901 2.3416921e-38
0.59920937 -0.25114053 0.68441063 2.3416921e-38
0.60315543 -0.2560524 0.68479079 2.3416921e-38
0.59444588 -0.2450579 0.68504322 2.3416921e-38
0.58675498 -0.23501876 0.6850028 2.3416921e-38
0.57774967 -0.22314146 0.6847077 2.3416921e-38
0.58179313 -0.22834602 0.68555194 2.3416921e-38
0.56815517 -0.21166298 0.68400174 2.3416921e-38
0.5727061 -0.21657845 0.68530911 2.3416921e-38
0.55887836 -0.2014811 0.68523318 2.3416921e-38
0.56337738 -0.20636012 0.68497676 2.3416921e-38
0.54966307 -0.19113101 0.68256813 2.3416921e-38
0.5533219 -0.19536492 0.68532938 2.3416921e-38
0.54618186 -0.18506372 0.68617481 2.3416921e-38
0.53901374 -0.1728867 0.68667763 2.3416921e-38
0.54134828 -0.17677464 0.68800026 2.3416921e-38
0.53807944 -0.16526115 0.68555635 2.3416921e-38
0.54090536 -0.16055615 0.68538392 2.3416921e-38
0.54526895 -0.15755916 0.68606108 2.3416921e-38
0.55500752 -0.15250988 0.68436217 2.3416921e-38
0.55965185 -0.14969093 0.68877649 2.3416921e-38
0.56554389 -0.14864025 0.68511999 2.3416921e-38
0.57391745 -0.14701019 0.68478167 2.3416921e-38
0.62766826 -0.29213083 0.69479173 2.3416921e-38
0.63262635 -0.2973206 0.69618136 2.3416921e-38
0.62358356 -0.28504404 0.69509095 2.3416921e-38
0.61750013 -0.27480298 0.69443488 2.3416921e-38
0.62054366 -0.27965951 0.69727701 2.3416921e-38
0.60888094 -0.26180977 0.69530952 2.3416921e-38
0.61252975 -0.2668055 0.69520336 2.3416921e-38
0.60361707 -0.25506616 0.6950084 2.3416921e-38
0.5957374 -0.24487975 0.69530684 2.3416921e-38
0.58715248 -0.23395097 0.69472516 2.3416921e-38
0.59117281 -0.23904409 0.69522476 2.3416921e-38
0.57825136 -0.22260185 0.69454765 2.3416921e-38
0.58199525 -0.2272816 0.69525194 2.3416921e-38
0.59148014 -0.22715443 0.69760448 2.3416921e-38
0.56908756 -0.21089728 0.69516617 2.3416921e-38
0.57324463 -0.21617386 0.69523203 2.3416921e-38
0.56412995 -0.2050593 0.69491047 2.3416921e-38
0.55495912 -0.19486928 0.69483656 2.3416921e-38
0.5473848 -0.1845627 0.69495231 2.3416921e-38
0.55170912 -0.18858276 0.69599497 2.3416921e-38
0.53984034 -0.17090112 0.69411623 2.3416921e-38
0.54284561 -0.17590055 0.6932596 2.3416921e-38
0.53906405 -0.16550027 0.69435704 2.3416921e-38
0.54109925 -0.16302441 0.69401562 2.3416921e-38
0.54612428 -0.15688019 0.69449139 2.3416921e-38
0.55347085 -0.15171359 0.69474357 2.3416921e-38
0.55906355 -0.14989474 0.69829589 2.3416921e-38
0.56510407 -0.1482331 0.69524693 2.3416921e-38
0.57391959 -0.14615108 0.69484252 2.3416921e-38
0.63705969 -0.30085871 0.70243448 2.3416921e-38
0.62846911 -0.29138047 0.70373565 2.3416921e-38
0.63341236 -0.29645675 0.7050072 2.3416921e-38
0.62440634 -0.28510603 0.70528197 2.3416921e-38
0.61760384 -0.27394333 0.70489115 2.3416921e-38
0.62063241 -0.27901578 0.70456856 2.3416921e-38
0.60948366 -0.26086125 0.70363075 2.3416921e-38
0.61274773 -0.26577485 0.70538223 2.3416921e-38
0.60523003 -0.25491196 0.70513409 2.3416921e-38
0.59665644 -0.24376428 0.705006 2.3416921e-38
0.6005289 -0.24899302 0.70406103 2.3416921e-38
0.5880264 -0.23306051 0.70460516 2.3416921e-38
0.59221351 -0.23808742 0.7051273 2.3416921e-38
0.56993294 -0.22726791 0.70161152 2.3416921e-38
0.57830137 -0.22128373 0.70399213 2.3416921e-38
0.58254176 -0.22623903 0.70517766 2.3416921e-38
0.56973273 -0.21065664 0.70368671 2.3416921e-38
0.57389736 -0.21554109 0.70546997 2.3416921e-38
0.56551522 -0.20504092 0.70525569 2.3416921e-38
0.55650228 -0.19410247 0.70459408 2.3416921e-38
0.5608986 -0.19913876 0.70590717 2.3416921e-38
0.5481537 -0.18268582 0.704072 2.3416921e-38
0.55190349 -0.18693164 0.70618802 2.3416921e-38
0.53938329 -0.17111365 0.70221448 2.3416921e-38
0.5438965 -0.17530084 0.70567745 2.3416921e-38
0.53951174 -0.16738948 0.7025426 2.3416921e-38
0.54081267 -0.16388841 0.7057299 2.3416921e-38
0.54459804 -0.15612862 0.70537263 2.3416921e-38
0.55519134 -0.15143079 0.70496118 2.3416921e-38
0.56532669 -0.1485503 0.70415229 2.3416921e-38
0.57479888 -0.14599147 0.70445764 2.3416921e-38
0.58053499 -0.14521821 0.70909524 2.3416921e-38
0.63803089 -0.30038124 0.71237302 2.3416921e-38
0.62882167 -0.29028261 0.71019399 2.3416921e-38
0.63383079 -0.29496753 0.71513182 2.3416921e-38
0.62583315 -0.28485608 0.7148813 2.3416921e-38
0.61842608 -0.2734082 0.71432263 2.3416921e-38
0.62153244 -0.27816877 0.71573567 2.3416921e-38
0.61345762 -0.26518005 0.71510887 2.3416921e-38
0.60653269 -0.25502482 0.7149809 2.3416921e-38
0.61003327 -0.2598564 0.71639645 2.3416921e-38
0.59736675 -0.24281575 0.71500111 2.3416921e-38
0.6015178 -0.24807262 0.71470559 2.3416921e-38
0.58862293 -0.23194343 0.71472132 2.3416921e-38
0.59256893 -0.23680893 0.71512097 2.3416921e-38
0.57890302 -0.22036514 0.71224618 2.3416921e-38
0.58328611 -0.22525695 0.71531391 2.3416921e-38
0.57484484 -0.21491715 0.71492344 2.3416921e-38
0.56672978 -0.20485651 0.71514416 2.3416921e-38
0.57132703 -0.20976272 0.7188158 2.3416921e-38
0.55716437 -0.19332993 0.71486288 2.3416921e-38
0.56140286 -0.19840553 0.71505046 2.3416921e-38
0.54926389 -0.181641 0.71584016 2.3416921e-38
0.55233324 -0.18665822 0.71517754 2.3416921e-38
0.54625827 -0.17464285 0.71282035 2.3416921e-38
0.54226154 -0.16433573 0.71449935 2.3416921e-38
0.54638678 -0.15620957 0.71402818 2.3416921e-38
0.55182052 -0.15191445 0.71639323 2.3416921e-38
0.55632603 -0.14926088 0.71592844 2.3416921e-38
0.56523585 -0.14721304 0.7152583 2.3416921e-38
0.57517755 -0.14614545 0.71479261 2.3416921e-38
0.58163154 -0.1455339 0.71508086 2.3416921e-38
0.56821519 -0.13773586 0.71861756 2.3416921e-38
0.63512921 -0.29458925 0.72505993 2.3416921e-38
0.64124668 -0.29876706 0.72931814 2.3416921e-38
0.62665129 -0.28367576 0.72540146 2.3416921e-38
0.63072252 -0.28904724 0.72616112 2.3416921e-38
0.61910349 -0.27220646 0.72437096 2.3416921e-38
0.62224102 -0.27705261 0.72494364 2.3416921e-38
0.61481661 -0.26534235 0.72490758 2.3416921e-38
0.60720176 -0.25439581 0.72458029 2.3416921e-38
0.61097556 -0.25931865 0.72729939 2.3416921e-38
0.59833777 -0.24253115 0.72516978 2.3416921e-38
0.60218292 -0.24742217 0.72490728 2.3416921e-38
0.58925092 -0.23123564 0.72426808 2.3416921e-38
0.59327602 -0.23612183 0.72524738 2.3416921e-38
0.58432561 -0.22483245 0.72510296 2.3416921e-38
0.57599175 -0.2143646 0.72466433 2.3416921e-38
0.58039033 -0.21936285 0.72731322 2.3416921e-38
0.5669958 -0.20316498 0.72425818 2.3416921e-38
0.57123625 -0.20796143 0.7263943 2.3416921e-38
0.55810326 -0.19250613 0.72466189 2.3416921e-38
0.5622974 -0.19730349 0.72518873 2.3416921e-38
0.5488705 -0.18174717 0.72384322 2.3416921e-38
0.55296344 -0.18635739 0.72562134 2.3416921e-38
0.54505271 -0.17458847 0.7253136 2.3416921e-38
0.54366875 -0.16569915 0.72447455 2.3416921e-38
0.54596537 -0.15529869 0.72609419 2.3416921e-38
0.55337906 -0.15072067 0.72002715 2.3416921e-38
0.55437881 -0.14845769 0.72533911 2.3416921e-38
0.56634629 -0.14652203 0.7246058 2.3416921e-38
0.5773263 -0.14566047 0.7261098 2.3416921e-38
0.6363225 -0.29267046 0.73453462 2.3416921e-38
0.64253563 -0.29756948 0.73420417 2.3416921e-38
0.6279248 -0.2834402 0.73465097 2.3416921e-38
0.63212132 -0.28791392 0.73607332 2.3416921e-38
0.61939329 -0.27091223 0.73468763 2.3416921e-38
0.62317187 -0.27597207 0.7350207 2.3416921e-38
0.6153183 -0.26477376 0.73483694 2.3416921e-38
0.60727149 -0.2534951 0.73487574 2.3416921e-38
0.61092848 -0.25829935 0.73559052 2.3416921e-38
0.59847671 -0.24207497 0.73515981 2.3416921e-38
0.60230726 -0.24720125 0.73515403 2.3416921e-38
0.58963943 -0.230305 0.73328781 2.3416921e-38
0.59351164 -0.23534763 0.7348187 2.3416921e-38
0.57274133 -0.22143579 0.73859191 2.3416921e-38
0.58582234 -0.22499909 0.73536432 2.3416921e-38
0.57692182 -0.21364397 0.73457766 2.3416921e-38
0.58090568 -0.21877767 0.73497039 2.3416921e-38
0.56788021 -0.20261949 0.73514289 2.3416921e-38
0.57195055 -0.20755601 0.73564702 2.3416921e-38
0.55792195 -0.19250177 0.73487616 2.3416921e-38
0.56288493 -0.19648522 0.73536772 2.3416921e-38
0.54859656 -0.18035448 0.73064101 2.3416921e-38
0.5534234 -0.18513262 0.73526448 2.3416921e-38
0.54766983 -0.17506061 0.73540461 2.3416921e-38
0.55065989 -0.17881544 0.73911637 2.3416921e-38
0.54495466 -0.16519745 0.7365551 2.3416921e-38
0.54657626 -0.15597066 0.73400837 2.3416921e-38
0.55090863 -0.15100983 0.73390633 2.3416921e-38
0.55468941 -0.14749539 0.73546737 2.3416921e-38
0.63788998 -0.29193228 0.74473387 2.3416921e-38
0.64125395 -0.29590249 0.74448627 2.3416921e-38
0.62907881 -0.2818417 0.74443245 2.3416921e-38
0.63330513 -0.28648832 0.74534959 2.3416921e-38
0.62373042 -0.27488938 0.74502397 2.3416921e-38
0.61648428 -0.2649225 0.74464476 2.3416921e-38
0.62053823 -0.26938224 0.74969149 2.3416921e-38
0.6074279 -0.25316516 0.74573827 2.3416921e-38
0.61249226 -0.25785714 0.74509251 2.3416921e-38
0.59877551 -0.24223147 0.74477166 2.3416921e-38
0.60257185 -0.24714106 0.74539399 2.3416921e-38
0.59359783 -0.23501377 0.7451809 2.3416921e-38
0.5862819 -0.2248458 0.74542171 2.3416921e-38
0.5776937 -0.21324368 0.74504191 2.3416921e-38
0.58156455 -0.21805991 0.7460978 2.3416921e-38
0.56879598 -0.20199928 0.74416888 2.3416921e-38
0.55944818 -0.19076449 0.74343902 2.3416921e-38
0.63927889 -0.29109129 0.75222337 2.3416921e-38
0.58747452 -0.18384913 0.75960964 2.3416921e-38
0.57782155 -0.1724176 0.75949806 2.3416921e-38
0.58517689 -0.17488974 0.75841224 2.3416921e-38
0.56571388 -0.16276833 0.75926346 2.3416921e-38
0.57498473 -0.16462831 0.7582221 2.3416921e-38
0.58467126 -0.16507216 0.75645298 2.3416921e-38
0.5650363 -0.15507182 0.75729978 2.3416921e-38
0.56493604 -0.14716984 0.75532609 2.3416921e-38
0.57478774 -0.18512189 0.76159286 2.3416921e-38
0.58320433 -0.18590151 0.76053965 2.3416921e-38
0.55833423 -0.17300871 0.76115388 2.3416921e-38
0.56489289 -0.17517933 0.76177776 2.3416921e-38
0.57423317 -0.17571649 0.760948 2.3416921e-38
0.58078438 -0.17963162 0.76036727 2.3416921e-38
0.5568462 -0.16685748 0.76085711 2.3416921e-38
0.56416005 -0.16702871 0.76072186 2.3416921e-38
0.57064945 -0.16880189 0.76031876 2.3416921e-38
0.6018275 -0.16865823 0.76062709 2.3416921e-38
0.4532713 0.049827605 0.63764369 1.9229942e-38
0.45388114 0.055591576 0.63393831 1.9229942e-38
0.45755163 0.064336434 0.63381755 1.9229942e-38
0.4614228 0.069581941 0.63480878 1.9229942e-38
0.46666688 0.072332658 0.63508713 1.9229942e-38
0.47519782 0.076990344 0.63508087 1.9229942e-38
0.48004079 0.079693183 0.63873148 1.9229942e-38
0.47982877 0.080059662 0.63062423 1.9229942e-38
0.48512959 0.083184578 0.63578266 1.9229942e-38
0.49264985 0.087936744 0.63592046 1.9229942e-38
0.49748653 0.091145381 0.63372827 1.9229942e-38
0.50445378 0.095398419 0.63523334 1.9229942e-38
0.51000768 0.098826051 0.63416648 1.9229942e-38
0.51592231 0.10211833 0.63539785 1.9229942e-38
0.52499437 0.10727552 0.63747585 1.9229942e-38
0.53100395 0.10988343 0.63372731 1.9229942e-38
0.53655183 0.11250475 0.63681871 1.9229942e-38
0.54267621 0.1152297 0.63912427 1.9229942e-38
0.44900954 0.054320924 0.64766103 1.9229942e-38
0.4541989 0.053692278 0.64394706 1.9229942e-38
0.46263823 0.051475946 0.64173806 1.9229942e-38
0.45575127 0.063940957 0.64555013 1.9229942e-38
0.46213365 0.068823174 0.6449632 1.9229942e-38
0.46764252 0.07185673 0.6451202 1.9229942e-38
0.47462419 0.075943403 0.64509869 1.9229942e-38
0.48035121 0.079472683 0.64380556 1.9229942e-38
0.48574668 0.083044767 0.64557236 1.9229942e-38
0.49339047 0.088064127 0.64441329 1.9229942e-38
0.49836564 0.091285735 0.64348727 1.9229942e-38
0.50497633 0.095537834 0.64450628 1.9229942e-38
0.51164401 0.099736854 0.64688915 1.9229942e-38
0.51608431 0.10231466 0.64399725 1.9229942e-38
0.52452219 0.10700843 0.64583361 1.9229942e-38
0.53372639 0.11172889 0.64492887 1.9229942e-38
0.54100323 0.11473987 0.64419687 1.9229942e-38
0.44926015 0.054277461 0.65419233 1.9229942e-38
0.45229238 0.058030844 0.65558845 1.9229942e-38
0.45667246 0.063466147 0.65448171 1.9229942e-38
0.46217203 0.06784296 0.65535504 1.9229942e-38
0.46794072 0.071685158 0.65489185 1.9229942e-38
0.47555143 0.07653334 0.65464574 1.9229942e-38
0.4851273 0.079366073 0.65441972 1.9229942e-38
0.48516145 0.082983397 0.65552032 1.9229942e-38
0.492991 0.088060997 0.65439707 1.9229942e-38
0.49820963 0.091431983 0.65465122 1.9229942e-38
0.50564647 0.096283607 0.65537989 1.9229942e-38
0.51025373 0.099269256 0.65301329 1.9229942e-38
0.51552325 0.10222757 0.65581667 1.9229942e-38
0.52480245 0.10721556 0.6548996 1.9229942e-38
0.51674187 0.11378206 0.65616935 1.9229942e-38
0.5344975 0.11217743 0.65363622 1.9229942e-38
0.54235697 0.11611569 0.65444988 1.9229942e-38
0.45644578 0.049263667 0.66562921 1.9229942e-38
0.46169651 0.049463097 0.66257375 1.9229942e-38
0.44979796 0.053552069 0.66345352 1.9229942e-38
0.45130926 0.054792985 0.66640168 1.9229942e-38
0.4569397 0.062860906 0.66509235 1.9229942e-38
0.46252882 0.067533314 0.66544574 1.9229942e-38
0.46694914 0.070997909 0.66539145 1.9229942e-38
0.47471315 0.076087996 0.66455799 1.9229942e-38
0.4805302 0.07985878 0.66800833 1.9229942e-38
0.48456705 0.082608022 0.66496593 1.9229942e-38
0.49250969 0.087860368 0.66558391 1.9229942e-38
0.49741602 0.091020979 0.66390097 1.9229942e-38
0.50507367 0.095777787 0.665003 1.9229942e-38
0.51540595 0.10215632 0.66528618 1.9229942e-38
0.52475047 0.10736585 0.66429508 1.9229942e-38
0.52963495 0.11285879 0.66910517 1.9229942e-38
0.53443968 0.11252033 0.66516125 1.9229942e-38
0.54375762 0.11748386 0.66447705 1.9229942e-38
0.46236357 0.04922656 0.67359877 1.9229942e-38
0.45188075 0.054787837 0.6755209 1.9229942e-38
0.4568859 0.062617987 0.67610621 1.9229942e-38
0.46277416 0.067911729 0.67524105 1.9229942e-38
0.46777096 0.071509719 0.67440766 1.9229942e-38
0.4742935 0.075647041 0.67491537 1.9229942e-38
0.48026255 0.079572357 0.67371958 1.9229942e-38
0.48546305 0.083061904 0.67514676 1.9229942e-38
0.49265307 0.087703727 0.67492354 1.9229942e-38
0.49826455 0.091425367 0.67520487 1.9229942e-38
0.50447404 0.095463514 0.67496008 1.9229942e-38
0.51081085 0.099504143 0.67478395 1.9229942e-38
0.51593167 0.10268115 0.67569995 1.9229942e-38
0.52420753 0.10736336 0.6752094 1.9229942e-38
0.52957022 0.11022431 0.67334723 1.9229942e-38
0.53546846 0.11346512 0.67537218 1.9229942e-38
0.54190803 0.11689404 0.67393851 1.9229942e-38
0.45636392 0.04871168 0.68959844 1.9229942e-38
0.44992888 0.051630389 0.68147337 1.9229942e-38
0.45250294 0.054075751 0.6852482 1.9229942e-38
0.45760965 0.062063448 0.68477625 1.9229942e-38
0.46303165 0.067237452 0.68441659 1.9229942e-38
0.46860901 0.071777619 0.68400633 1.9229942e-38
0.47586077 0.076137468 0.68458527 1.9229942e-38
0.48555472 0.083042681 0.68476039 1.9229942e-38
0.49269399 0.08789596 0.68527198 1.9229942e-38
0.49750453 0.091086403 0.68512309 1.9229942e-38
0.50496 0.095808826 0.68526524 1.9229942e-38
0.51001757 0.098973535 0.6824041 1.9229942e-38
0.51546544 0.10238387 0.68507034 1.9229942e-38
0.52410674 0.10745148 0.6851337 1.9229942e-38
0.53449726 0.11314459 0.68574709 1.9229942e-38
0.54313791 0.11724855 0.68537372 1.9229942e-38
0.45455906 0.049256589 0.69500136 1.9229942e-38
0.44999772 0.052732605 0.69441664 1.9229942e-38
0.45187324 0.055170897 0.69572723 1.9229942e-38
0.45668355 0.062742867 0.69469613 1.9229942e-38
0.46216804 0.067801423 0.69506514 1.9229942e-38
0.46741414 0.0713863 0.69450784 1.9229942e-38
0.47460222 0.076132856 0.69502795 1.9229942e-38
0.48031694 0.079932161 0.69695777 1.9229942e-38
0.48491895 0.082882084 0.69446462 1.9229942e-38
0.492843 0.088101134 0.69529408 1.9229942e-38
0.49807143 0.091458 0.69417888 1.9229942e-38
0.50462711 0.095639102 0.69489187 1.9229942e-38
0.45493683 0.047904272 0.70383137 1.9229942e-38
0.45370156 0.055545501 0.70328546 1.9229942e-38
0.45564619 0.063299157 0.70479858 1.9229942e-38
0.46217981 0.06810908 0.70546877 1.9229942e-38
0.46761122 0.071699485 0.70437878 1.9229942e-38
0.51173955 0.099849425 0.71761829 1.9229942e-38
0.51525617 0.10197119 0.71428788 1.9229942e-38
0.52378547 0.10686543 0.71510929 1.9229942e-38
0.5295155 0.11014695 0.71739769 1.9229942e-38
0.5346849 0.11312615 0.71501547 1.9229942e-38
0.54300112 0.11740497 0.71599454 1.9229942e-38
0.46836358 0.071383439 0.72577769 1.9229942e-38
0.47465026 0.075882658 0.72465819 1.9229942e-38
0.48041239 0.07985723 0.72774994 1.9229942e-38
0.47030261 0.082817368 0.72449028 1.9229942e-38
0.48540518 0.083460912 0.72478312 1.9229942e-38
0.4937005 0.088685162 0.72501963 1.9229942e-38
0.49827138 0.091549389 0.72642857 1.9229942e-38
0.5044775 0.09547881 0.72450012 1.9229942e-38
0.51074487 0.099300861 0.72497541 1.9229942e-38
0.51663864 0.10266185 0.72516775 1.9229942e-38
0.52548081 0.10768163 0.72479844 1.9229942e-38
0.53533673 0.11318287 0.72520828 1.9229942e-38
0.54406881 0.11621158 0.72669667 1.9229942e-38
0.4544324 0.04759001 0.73393834 1.9229942e-38
0.46286708 0.047353894 0.73287493 1.9229942e-38
0.45340008 0.054576229 0.73566562 1.9229942e-38
0.45775458 0.062728994 0.73551035 1.9229942e-38
0.46303332 0.067862801 0.73469073 1.9229942e-38
0.46804062 0.071134806 0.73442757 1.9229942e-38
0.47506383 0.075869858 0.73531801 1.9229942e-38
0.48036706 0.079550706 0.73380375 1.9229942e-38
0.48537743 0.083187804 0.73458755 1.9229942e-38
0.49248564 0.088038914 0.73504543 1.9229942e-38
0.49751785 0.091210753 0.73539644 1.9229942e-38
0.50530088 0.095996007 0.73489159 1.9229942e-38
0.5158838 0.098685309 0.73775709 1.9229942e-38
0.51550317 0.10196456 0.73426414 1.9229942e-38
0.52410901 0.10682122 0.73506492 1.9229942e-38
0.53236324 0.11139149 0.73411113 1.9229942e-38
0.45567802 0.048768766 0.74620324 1.9229942e-38
0.45538005 0.05459784 0.74380195 1.9229942e-38
0.45842081 0.063252851 0.74461311 1.9229942e-38
0.46404698 0.068274669 0.74526697 1.9229942e-38
0.46837601 0.07117603 0.74343854 1.9229942e-38
0.47498837 0.075812802 0.74535978 1.9229942e-38
0.4845098 0.08286079 0.74520493 1.9229942e-38
0.49264875 0.088050991 0.74540782 1.9229942e-38
0.49783102 0.09117195 0.74437362 1.9229942e-38
0.50500888 0.095279805 0.74523181 1.9229942e-38
0.51223183 0.099545725 0.74456948 1.9229942e-38
0.51666838 0.10265282 0.74491161 1.9229942e-38
0.52563947 0.10785779 0.74483186 1.9229942e-38
0.53437078 0.11276499 0.7456466 1.9229942e-38
0.54319537 0.11752587 0.74824643 1.9229942e-38
0.45398411 0.04911872 0.75792718 1.9229942e-38
0.45249882 0.054469742 0.75602156 1.9229942e-38
0.45727381 0.063061923 0.75488174 1.9229942e-38
0.46378538 0.067877695 0.7550568 1.9229942e-38
0.46842405 0.070998214 0.75385892 1.9229942e-38
0.47480941 0.075475596 0.75516397 1.9229942e-38
0.48124817 0.079878628 0.75598651 1.9229942e-38
0.48527908 0.082690649 0.75474042 1.9229942e-38
0.49324957 0.087653451 0.75501198 1.9229942e-38
0.49835849 0.09079127 0.75523543 1.9229942e-38
0.50488102 0.094711632 0.75518179 1.9229942e-38
0.51147711 0.098866411 0.75449884 1.9229942e-38
0.51692748 0.10199454 0.75448501 1.9229942e-38
0.52509463 0.10709861 0.75469768 1.9229942e-38
0.53436184 0.11283464 0.75553662 1.9229942e-38
0.54326832 0.11797984 0.75466985 1.9229942e-38
0.45561826 0.047571059 0.76452106 1.9229942e-38
0.46084833 0.045723908 0.76545715 1.9229942e-38
0.45247653 0.054942638 0.76556224 1.9229942e-38
0.45668337 0.062524073 0.76505345 1.9229942e-38
0.46347606 0.067546412 0.76524448 1.9229942e-38
0.46851933 0.070992671 0.76572132 1.9229942e-38
0.47525531 0.07542485 0.76536787 1.9229942e-38
0.48135194 0.079423472 0.76494092 1.9229942e-38
0.48627558 0.08256948 0.76509082 1.9229942e-38
0.49332893 0.087074682 0.76512444 1.9229942e-38
0.49833417 0.090241864 0.7643429 1.9229942e-38
0.50444525 0.094075032 0.76524127 1.9229942e-38
0.51221323 0.098941356 0.76490211 1.9229942e-38
0.51747715 0.10216603 0.76515365 1.9229942e-38
0.52567399 0.10722556 0.76529384 1.9229942e-38
0.53491712 0.11290085 0.76545179 1.9229942e-38
0.54196548 0.11718254 0.76499516 1.9229942e-38
0.45364133 0.048570652 0.77520388 1.9229942e-38
0.45457199 0.054568846 0.77485031 1.9229942e-38
0.45740342 0.061966617 0.7747882 1.9229942e-38
0.46418059 0.06668561 0.77597022 1.9229942e-38
0.46865463 0.070124313 0.77395463 1.9229942e-38
0.47514778 0.074430525 0.77477837 1.9229942e-38
0.48169154 0.078946933 0.77456391 1.9229942e-38
0.48596221 0.081805758 0.77510494 1.9229942e-38
0.49408028 0.087137744 0.77480006 1.9229942e-38
0.49975654 0.090896592 0.77812397 1.9229942e-38
0.50496233 0.094241172 0.77498454 1.9229942e-38
0.51182538 0.098520041 0.77428013 1.9229942e-38
0.51652163 0.10139682 0.77520287 1.9229942e-38
0.52487952 0.10631675 0.77512497 1.9229942e-38
0.53550428 0.1123469 0.7746613 1.9229942e-38
0.54275101 0.11653989 0.77480763 1.9229942e-38
0.45683113 0.048095852 0.78384256 1.9229942e-38
0.46263769 0.047977909 0.78637397 1.9229942e-38
0.45577532 0.055746589 0.78516507 1.9229942e-38
0.45947921 0.061382212 0.78073454 1.9229942e-38
0.46416813 0.065335825 0.7848106 1.9229942e-38
0.46976894 0.070854962 0.78895617 1.9229942e-38
0.47467056 0.074113049 0.78511697 1.9229942e-38
0.4819043 0.078981824 0.78542584 1.9229942e-38
0.48716649 0.082464285 0.78512931 1.9229942e-38
0.49439612 0.087285995 0.78477895 1.9229942e-38
0.49918747 0.090414271 0.7853694 1.9229942e-38
0.50545049 0.0943112 0.78532076 1.9229942e-38
0.51282817 0.098912761 0.78540838 1.9229942e-38
0.51760387 0.10184521 0.78510177 1.9229942e-38
0.52473325 0.10616565 0.78519619 1.9229942e-38
0.53075337 0.10964173 0.78461325 1.9229942e-38
0.53515661 0.11214321 0.78469032 1.9229942e-38
0.5417856 0.11578493 0.78390652 1.9229942e-38
0.4575406 0.048461478 0.79706591 1.9229942e-38
0.46174502 0.047058076 0.79618436 1.9229942e-38
0.45543823 0.054999255 0.7945224 1.9229942e-38
0.45994794 0.060984805 0.79209936 1.9229942e-38
0.46430594 0.065358207 0.79498708 1.9229942e-38
0.46974021 0.070608303 0.79437417 1.9229942e-38
0.47491029 0.073989153 0.79566336 1.9229942e-38
0.48129952 0.078471392 0.79501623 1.9229942e-38
0.48689857 0.082237288 0.79515398 1.9229942e-38
0.49483854 0.087314561 0.79512972 1.9229942e-38
0.50941902 0.086273283 0.79048812 1.9229942e-38
0.49912077 0.090073384 0.7908504 1.9229942e-38
0.50459218 0.093595959 0.79547775 1.9229942e-38
0.51202929 0.098325282 0.79463512 1.9229942e-38
0.52097505 0.096571162 0.79374498 1.9229942e-38
0.51701403 0.10144047 0.7951802 1.9229942e-38
0.52490509 0.10626184 0.795102 1.9229942e-38
0.53516871 0.11205178 0.79334277 1.9229942e-38
0.54378879 0.11580452 0.79295319 1.9229942e-38
0.4565616 0.048899468 0.80572307 1.9229942e-38
0.46110439 0.046611439 0.80514187 1.9229942e-38
0.45640919 0.054589204 0.80530822 1.9229942e-38
0.48034552 0.059264723 0.80642557 1.9229942e-38
0.4586257 0.061141491 0.80674696 1.9229942e-38
0.46488911 0.065304056 0.80683959 1.9229942e-38
0.4704451 0.068651199 0.80933434 1.9229942e-38
0.48641804 0.064931236 0.80866444 1.9229942e-38
0.49315685 0.068178549 0.80778062 1.9229942e-38
0.474933 0.072697856 0.80560279 1.9229942e-38
0.48279586 0.077219002 0.80675906 1.9229942e-38
0.49308103 0.07104677 0.80974287 1.9229942e-38
0.50484729 0.074410036 0.80833071 1.9229942e-38
0.51158375 0.078888535 0.80778539 1.9229942e-38
0.48695278 0.081270747 0.80513257 1.9229942e-38
0.49460888 0.0855693 0.80635673 1.9229942e-38
0.50195497 0.088698395 0.80893499 1.9229942e-38
0.51655895 0.084128313 0.80832368 1.9229942e-38
0.52422249 0.087810725 0.80739683 1.9229942e-38
0.50540817 0.092862107 0.80590755 1.9229942e-38
0.51352608 0.097509585 0.80664623 1.9229942e-38
0.52489936 0.091508307 0.80927861 1.9229942e-38
0.53499061 0.096072979 0.80741471 1.9229942e-38
0.54128748 0.098228455 0.80675375 1.9229942e-38
0.51735508 0.10078713 0.80370009 1.9229942e-38
0.52531427 0.10451811 0.80494308 1.9229942e-38
0.53405946 0.10758644 0.8063128 1.9229942e-38
0.54475433 0.10272358 0.80882043 1.9229942e-38
0.5511077 0.1065546 0.80967367 1.9229942e-38
0.53741163 0.11223057 0.80404693 1.9229942e-38
0.54260218 0.11443438 0.8063612 1.9229942e-38
0.55166125 0.11428046 0.80700165 1.9229942e-38
0.4593513 0.049443647 0.81158346 1.9229942e-38
0.46196887 0.049324531 0.81066942 1.9229942e-38
0.45895612 0.054623958 0.81230336 1.9229942e-38
0.46419099 0.056102939 0.81334859 1.9229942e-38
0.47126451 0.058451578 0.81384677 1.9229942e-38
0.4664256 0.062132191 0.81099761 1.9229942e-38
0.47422531 0.065061197 0.81271297 1.9229942e-38
0.48275197 0.066657498 0.81221014 1.9229942e-38
0.47744194 0.071391851 0.81212384 1.9229942e-38
0.48525092 0.074431978 0.81219786 1.9229942e-38
0.49481446 0.075849868 0.81333792 1.9229942e-38
0.50323641 0.077542633 0.81330377 1.9229942e-38
0.49644467 0.082014106 0.81263965 1.9229942e-38
0.50470603 0.085611723 0.81355006 1.9229942e-38
0.51283228 0.087319806 0.81227601 1.9229942e-38
0.50876296 0.091173716 0.81103593 1.9229942e-38
0.51519084 0.094252937 0.81222928 1.9229942e-38
0.52417594 0.096672267 0.81159782 1.9229942e-38
0.53171182 0.098648176 0.81102109 1.9229942e-38
0.52685106 0.10163478 0.81278223 1.9229942e-38
0.53536683 0.10528168 0.81225973 1.9229942e-38
0.54416084 0.1071019 0.81163609 1.9229942e-38
0.55152154 0.10841212 0.81061405 1.9229942e-38
0.54520255 0.11178519 0.81185114 1.9229942e-38
0.70682365 -0.064541943 0.63487643 3.366614e-39
0.69814444 -0.052257419 0.63499469 3.366614e-39
0.70203978 -0.057790279 0.63547128 3.366614e-39
0.69320995 -0.0448885 0.63498861 3.366614e-39
0.6866836 -0.035425164 0.63499439 3.366614e-39
0.6780436 -0.022261253 0.63515383 3.366614e-39
0.68177772 -0.027821535 0.63502908 3.366614e-39
0.67273033 -0.014705642 0.63502502 3.366614e-39
0.66574234 -0.0047359401 0.63480377 3.366614e-39
0.65780038 0.0068734773 0.63524586 3.366614e-39
0.66080189 0.0025063881 0.63506275 3.366614e-39
0.64791065 0.017724423 0.63521981 3.366614e-39
0.65283328 0.013832676 0.63539457 3.366614e-39
0.64520383 0.025318641 0.6347779 3.366614e-39
0.63863659 0.036908414 0.63520902 3.366614e-39
0.64093459 0.032638796 0.6353305 3.366614e-39
0.63788694 0.041163187 0.63487858 3.366614e-39
0.64425969 0.046670064 0.6348545 3.366614e-39
0.649584 0.051178556 0.63534862 3.366614e-39
0.65490872 0.055497963 0.63474005 3.366614e-39
0.66556394 0.063414857 0.63559157 3.366614e-39
0.67289412 0.068779588 0.6355511 3.366614e-39
0.67774409 0.072275393 0.63504201 3.366614e-39
0.68062663 0.073559187 0.63585758 3.366614e-39
0.70731914 -0.063786767 0.64505863 3.366614e-39
0.71116447 -0.06635312 0.64830881 3.366614e-39
0.69860107 -0.052471671 0.64479792 3.366614e-39
0.70236331 -0.057427328 0.64565551 3.366614e-39
0.69326741 -0.044797447 0.64534312 3.366614e-39
0.6866129 -0.035066813 0.64516562 3.366614e-39
0.67794317 -0.022539079 0.64556211 3.366614e-39
0.68167549 -0.027902259 0.64425159 3.366614e-39
0.66977924 -0.010973541 0.64577544 3.366614e-39
0.67290401 -0.01535481 0.64521003 3.366614e-39
0.66550267 -0.0048024552 0.64468098 3.366614e-39
0.65787917 0.006218411 0.6451419 3.366614e-39
0.66104937 0.0016249106 0.64495677 3.366614e-39
0.64785939 0.01863884 0.64456099 3.366614e-39
0.65289903 0.013735177 0.64504737 3.366614e-39
0.64498019 0.025497692 0.6447742 3.366614e-39
0.63804185 0.036789894 0.64593232 3.366614e-39
0.64066726 0.032649092 0.64420658 3.366614e-39
0.63851416 0.041051663 0.6437645 3.366614e-39
0.64419585 0.045685474 0.6454705 3.366614e-39
0.64937222 0.051003505 0.64367521 3.366614e-39
0.65479201 0.055243015 0.64528418 3.366614e-39
0.66114467 0.059991416 0.64885026 3.366614e-39
0.664841 0.062594011 0.64422363 3.366614e-39
0.67421412 0.068052717 0.64570987 3.366614e-39
0.67901182 0.071476273 0.64215225 3.366614e-39
0.68349999 0.072707474 0.64609927 3.366614e-39
0.70811546 -0.061241686 0.65537483 3.366614e-39
0.71306503 -0.065365374 0.65258718 3.366614e-39
0.69820303 -0.052026909 0.65506667 3.366614e-39
0.70352358 -0.057170115 0.65474153 3.366614e-39
0.69365621 -0.045048349 0.65470594 3.366614e-39
0.68628669 -0.034381479 0.65480006 3.366614e-39
0.69021058 -0.039916433 0.65776861 3.366614e-39
0.67810613 -0.023439042 0.65509582 3.366614e-39
0.68142509 -0.027904021 0.65467054 3.366614e-39
0.66925627 -0.010764947 0.65430522 3.366614e-39
0.67298967 -0.016158355 0.65544844 3.366614e-39
0.66527492 -0.0050266692 0.65478563 3.366614e-39
0.6704883 -0.0058159791 0.65987086 3.366614e-39
0.65766323 0.0060779271 0.65485841 3.366614e-39
0.66105497 0.0010768895 0.65581906 3.366614e-39
0.64898676 0.018512869 0.65473968 3.366614e-39
0.65275824 0.013132578 0.65514612 3.366614e-39
0.64416963 0.025469227 0.65500325 3.366614e-39
0.63823283 0.035373285 0.65505284 3.366614e-39
0.64010453 0.031535581 0.65311337 3.366614e-39
0.64443058 0.044509545 0.65506655 3.366614e-39
0.65377814 0.054070305 0.6547116 3.366614e-39
0.6607663 0.059793223 0.65587682 3.366614e-39
0.66543072 0.062879413 0.65548992 3.366614e-39
0.67546612 0.067628883 0.65339124 3.366614e-39
0.68559766 0.072272964 0.65221626 3.366614e-39
0.70623481 -0.063448705 0.66717207 3.366614e-39
0.71448314 -0.068071663 0.66370618 3.366614e-39
0.69804227 -0.052326418 0.66527438 3.366614e-39
0.70130819 -0.057376377 0.66626132 3.366614e-39
0.71098477 -0.055588767 0.66361088 3.366614e-39
0.68359882 -0.041143481 0.66155845 3.366614e-39
0.69323808 -0.045352273 0.66529381 3.366614e-39
0.68580687 -0.034704808 0.66531426 3.366614e-39
0.67768419 -0.023121081 0.66470265 3.366614e-39
0.68085384 -0.027645657 0.66518223 3.366614e-39
0.66904771 -0.01084766 0.66577512 3.366614e-39
0.6727373 -0.016119085 0.66487122 3.366614e-39
0.6651063 -0.0049684155 0.66499501 3.366614e-39
0.65739036 0.0063187988 0.6648767 3.366614e-39
0.66101742 0.0010340395 0.66474408 3.366614e-39
0.67118424 0.0032200441 0.66437632 3.366614e-39
0.64856482 0.018662473 0.66493767 3.366614e-39
0.65240622 0.013322745 0.66525286 3.366614e-39
0.64384776 0.025800936 0.66561395 3.366614e-39
0.63843316 0.036076065 0.664868 3.366614e-39
0.64071459 0.033153642 0.66791302 3.366614e-39
0.63892591 0.040872384 0.66624808 3.366614e-39
0.64460588 0.04562423 0.66379017 3.366614e-39
0.64755851 0.051781628 0.6668222 3.366614e-39
0.65470636 0.055368084 0.66462874 3.366614e-39
0.66027641 0.059555367 0.66427088 3.366614e-39
0.66535425 0.063184552 0.66515738 3.366614e-39
0.67248529 0.067811772 0.66514778 3.366614e-39
0.67766565 0.070657201 0.66472185 3.366614e-39
0.68120247 0.072511755 0.66610807 3.366614e-39
0.70792603 -0.063111044 0.67357183 3.366614e-39
0.71230137 -0.067020945 0.67524296 3.366614e-39
0.6980862 -0.052265801 0.67385608 3.366614e-39
0.70301443 -0.057718817 0.67416394 3.366614e-39
0.68979621 -0.040874597 0.67632276 3.366614e-39
0.69305068 -0.045427345 0.67484969 3.366614e-39
0.68583161 -0.03516686 0.67502141 3.366614e-39
0.67766416 -0.02349133 0.67520529 3.366614e-39
0.68133545 -0.028759958 0.6758309 3.366614e-39
0.66915244 -0.011293696 0.67464316 3.366614e-39
0.67275846 -0.016500046 0.67515457 3.366614e-39
0.66484839 -0.0049715401 0.67472893 3.366614e-39
0.65723532 0.0062618935 0.67510241 3.366614e-39
0.66072607 0.0011779383 0.67409593 3.366614e-39
0.64854455 0.018562779 0.67472321 3.366614e-39
0.65225184 0.013506989 0.67500073 3.366614e-39
0.64408016 0.025132911 0.67538285 3.366614e-39
0.63917476 0.036477018 0.67722356 3.366614e-39
0.64139038 0.036187757 0.67359436 3.366614e-39
