# .PCD v0.7 - Point Cloud Data file format
VERSION 0.7
FIELDS x y z rgb
SIZE 4 4 4 4
TYPE F F F F
COUNT 1 1 1 1
WIDTH 979
HEIGHT 1
VIEWPOINT 0 0 0 1 0 0 0
POINTS 979
DATA ascii
1.8532615 1.1844095 -6.3975654e-06 5.2551509e-39
1.8643246 1.1851857 -5.5789947e-06 5.2551509e-39
1.874065 1.1858709 -7.0333481e-06 5.2551509e-39
1.8852766 1.1845571 -6.3657762e-06 5.2551509e-39
1.895147 1.1852443 -7.2717667e-06 5.2551509e-39
1.9050848 1.185935 -6.4611436e-06 5.2551509e-39
1.9165159 1.1846108 -9.4175339e-06 5.2551509e-39
1.9236981 1.1851034 -6.3180923e-06 5.2551509e-39
1.9345441 1.1847832 -7.3313713e-06 5.2551509e-39
1.9452386 1.183377 -0.001127544 5.2551509e-39
1.9527706 1.1849607 -6.4373016e-06 5.2551509e-39
1.9630772 1.1856649 -7.7962877e-06 5.2551509e-39
1.9749285 1.1843144 -9.4175339e-06 5.2551509e-39
1.9853737 1.185019 -8.0347063e-06 5.2551509e-39
1.9973863 1.183655 -7.5101852e-06 5.2551509e-39
2.00494 1.1863394 -5.7220459e-06 5.2551509e-39
2.0125327 1.1846677 -7.0333481e-06 5.2551509e-39
2.0232241 1.1853832 -7.1763993e-06 5.2551509e-39
2.0355191 1.184005 -7.2717667e-06 5.2551509e-39
2.0432544 1.1845182 -8.4638596e-06 5.2551509e-39
2.0557077 1.1853428 -8.0585478e-06 5.2551509e-39
2.0663459 1.18578 -0.0015241215 5.2551509e-39
2.0745533 1.1843641 -7.7486038e-06 5.2551509e-39
2.0824716 1.1848836 -8.3446503e-06 5.2551509e-39
2.0944235 1.184546 -8.5830688e-06 5.2551509e-39
2.1064506 1.1864557 -8.225441e-06 5.2551509e-39
2.1145189 1.1847308 -7.390976e-06 5.2551509e-39
2.1222825 1.1860952 -0.0010778613 5.2551509e-39
2.1348681 1.1849172 -8.0168247e-06 5.2551509e-39
2.1471875 1.1845766 -8.4638596e-06 5.2551509e-39
2.155452 1.1851072 -7.7486038e-06 5.2551509e-39
2.1637578 1.1833546 -7.9870224e-06 5.2551509e-39
2.1721029 1.1861764 -7.390976e-06 5.2551509e-39
2.1889174 1.180348 -7.5101852e-06 5.2551509e-39
0.80815089 1.1954224 -5.5134296e-06 6.5458897e-39
0.81427306 1.1947135 -6.0038133e-06 5.2551509e-39
0.82506853 1.1952032 -4.6917371e-06 5.2551509e-39
0.83568919 1.1947776 -5.9279528e-06 5.2551509e-39
0.84541374 1.1953263 -5.3427434e-06 5.2551509e-39
0.85493797 1.1949482 -5.2452087e-06 5.2551509e-39
0.86457616 1.1949407 -0.00036465281 5.2551509e-39
0.87454122 1.1951201 -4.7250228e-06 5.2551509e-39
0.88403302 1.1952274 -6.1154365e-06 5.2551509e-39
0.89390916 1.1948416 -5.9843064e-06 5.2551509e-39
0.90357298 1.1949459 -6.0038133e-06 5.2551509e-39
0.91359872 1.1950407 -5.38826e-06 5.2551509e-39
0.92408937 1.1951245 -6.5131621e-06 5.2551509e-39
0.93467921 1.1952055 -5.2809714e-06 5.2551509e-39
0.9450267 1.1948113 -6.0558318e-06 5.2551509e-39
0.9551217 1.1954153 -7.0214273e-06 5.2551509e-39
0.96566021 1.1950154 -4.4345857e-06 5.2551509e-39
0.97630149 1.1946151 -5.5074693e-06 5.2551509e-39
0.98498809 1.1955032 -6.2499726e-06 5.2551509e-39
0.99426252 1.1949431 -5.8650971e-06 5.2551509e-39
1.0051775 1.1950402 -4.9008263e-06 5.2551509e-39
1.0158299 1.1951528 -5.7935713e-06 5.2551509e-39
1.0251969 1.1950272 -6.4543315e-06 5.2551509e-39
1.0348058 1.1949661 -5.5498549e-06 5.2551509e-39
1.0457375 1.1950792 -5.7101252e-06 5.2551509e-39
1.0553511 1.1949508 -5.6028366e-06 5.2551509e-39
1.0652158 1.1948897 -6.1061646e-06 5.2551509e-39
1.0746042 1.1952934 -6.3691818e-06 5.2551509e-39
1.0848857 1.1948451 -0.0011249512 5.2551509e-39
1.0944599 1.1948823 -6.45717e-06 5.2551509e-39
1.1043746 1.1950547 -6.4849855e-06 5.2551509e-39
1.1143675 1.1952289 -5.9405961e-06 5.2551509e-39
1.1244508 1.1948733 -6.2386193e-06 5.2551509e-39
1.1350511 1.1948657 -0.00072462199 5.2551509e-39
1.1448685 1.1952242 -5.4041543e-06 5.2551509e-39
1.1552067 1.1943256 -6.4770379e-06 5.2551509e-39
1.1660575 1.195026 -5.9008598e-06 5.2551509e-39
1.176155 1.1946769 -6.3578286e-06 5.2551509e-39
1.1846347 1.1954716 -4.8081079e-06 5.2551509e-39
1.1953229 1.1945612 -5.8545006e-06 5.2551509e-39
1.2060972 1.195838 -5.7220459e-06 5.2551509e-39
1.2147892 1.1949965 -7.5101852e-06 5.2551509e-39
1.2235405 1.1941444 -7.5101852e-06 5.2551509e-39
1.2345679 1.1954342 -5.0200356e-06 5.2551509e-39
1.2456905 1.1945034 -6.6757202e-06 5.2551509e-39
1.2546611 1.1953216 -6.4969063e-06 5.2551509e-39
1.2636958 1.1944598 -6.3180923e-06 5.2551509e-39
1.2750838 1.1952071 -5.7617822e-06 5.2551509e-39
1.2865688 1.1948285 -6.6161156e-06 5.2551509e-39
1.2953675 1.1947629 -4.8637389e-06 5.2551509e-39
1.3051667 1.1947838 -6.7949295e-06 5.2551509e-39
1.3145664 1.1956215 -5.7220459e-06 5.2551509e-39
1.3240371 1.1947414 -6.8545341e-06 5.2551509e-39
1.3330967 1.1946756 -6.1035157e-06 5.2551509e-39
1.3431851 1.1946948 -6.2386193e-06 5.2551509e-39
1.3528666 1.195546 -7.0929527e-06 5.2551509e-39
1.3650718 1.1945716 -6.0399375e-06 5.2551509e-39
1.3778791 1.1950995 -6.246567e-06 5.2551509e-39
1.3873205 1.1950358 -6.1988831e-06 5.2551509e-39
1.3968287 1.1949695 -5.7220459e-06 5.2551509e-39
1.4074078 1.1942893 -0.0007414532 5.2551509e-39
1.4150279 1.1947485 -2.9206276e-06 5.2551509e-39
1.4226927 1.1945096 -6.4969063e-06 5.2551509e-39
1.432972 1.1953851 -6.0200691e-06 5.2551509e-39
1.4438502 1.1954093 -5.8174132e-06 5.2551509e-39
1.4532436 1.1943927 -4.9352648e-06 5.2551509e-39
1.4642887 1.1944133 -7.0929527e-06 5.2551509e-39
1.4748884 1.1953017 -6.4969063e-06 5.2551509e-39
1.4861071 1.1953259 -6.0796738e-06 5.2551509e-39
1.4957966 1.1942937 -5.9604645e-06 5.2551509e-39
1.5066426 1.1951923 -5.5313112e-06 5.2551509e-39
1.5153805 1.1959176 -7.1525574e-06 5.2551509e-39
1.5230751 1.1946958 -7.4863433e-06 5.2551509e-39
1.5346913 1.1947155 -6.4373016e-06 5.2551509e-39
1.5464058 1.194738 -6.6041948e-06 5.2551509e-39
1.557654 1.1956556 -6.9856642e-06 5.2551509e-39
1.5655798 1.1944147 -8.225441e-06 5.2551509e-39
1.574695 1.1951511 -6.7710876e-06 5.2551509e-39
1.5850182 1.1940846 -6.3419343e-06 5.2551509e-39
1.5947287 1.19564 -0.0016786795 5.2551509e-39
1.6035572 1.1955715 -6.0558318e-06 5.2551509e-39
1.6140931 1.1944973 -7.2240828e-06 5.2551509e-39
1.6258863 1.1954339 -5.0306321e-06 5.2551509e-39
1.635391 1.1942559 -5.8412552e-06 5.2551509e-39
1.6437651 1.1949177 -7.367134e-06 5.2551509e-39
1.656408 1.1949383 -5.4240227e-06 5.2551509e-39
1.6643362 1.1949892 -0.00093156594 5.2551509e-39
1.6740528 1.1953461 -6.5803529e-06 5.2551509e-39
1.6838756 1.1941477 -6.5565109e-06 5.2551509e-39
1.6925297 1.1948185 -6.0319899e-06 5.2551509e-39
1.7056031 1.194841 -6.6161156e-06 5.2551509e-39
1.7150095 1.1945753 -7.5101852e-06 5.2551509e-39
1.723848 1.195255 -7.7247623e-06 5.2551509e-39
1.7340057 1.1940355 -7.2717667e-06 5.2551509e-39
1.7429581 1.1947186 -8.1300732e-06 5.2551509e-39
1.755831 1.1956981 -5.8889391e-06 5.2551509e-39
1.7662064 1.1944666 -4.8875809e-06 5.2551509e-39
1.7753531 1.1951588 -6.4849855e-06 5.2551509e-39
1.7858649 1.1939189 -7.0333481e-06 5.2551509e-39
1.7951285 1.1946129 -7.1763993e-06 5.2551509e-39
1.8057779 1.1954108 -7.9870224e-06 5.2551509e-39
1.815835 1.1951355 -7.7486038e-06 5.2551509e-39
1.8259511 1.1948603 -7.9870224e-06 5.2551509e-39
1.8361416 1.194582 -8.5234642e-06 5.2551509e-39
1.8463899 1.1943021 -7.5101852e-06 5.2551509e-39
1.8532627 1.1948074 -7.2717667e-06 5.2551509e-39
1.8629383 1.1955181 -6.0319899e-06 5.2551509e-39
1.874065 1.194244 -7.0333481e-06 5.2551509e-39
1.8848424 1.1957911 -3.2157233e-05 5.2551509e-39
1.895147 1.1957809 -7.2717667e-06 5.2551509e-39
1.9057972 1.1954983 -6.6161156e-06 5.2551509e-39
1.9165138 1.1952171 -7.6691313e-06 5.2551509e-39
1.9236982 1.195735 -6.3180923e-06 5.2551509e-39
1.9352691 1.1944373 -7.3194506e-06 5.2551509e-39
1.9454535 1.1951659 -6.9141388e-06 5.2551509e-39
1.9527706 1.1956891 -6.4373016e-06 5.2551509e-39
1.9638155 1.1954026 -7.6889992e-06 5.2551509e-39
1.9749285 1.1951165 -9.4175339e-06 5.2551509e-39
1.9861231 1.1948242 -8.5234642e-06 5.2551509e-39
1.9973863 1.1945319 -7.5101852e-06 5.2551509e-39
2.0049419 1.1950622 -7.1525574e-06 5.2551509e-39
2.0125327 1.1955951 -7.0333481e-06 5.2551509e-39
2.0239902 1.1953018 -6.9141388e-06 5.2551509e-39
2.0355191 1.1950088 -7.2717667e-06 5.2551509e-39
2.0432544 1.1955478 -8.4638596e-06 5.2551509e-39
2.0549271 1.1952538 -8.1062317e-06 5.2551509e-39
2.0666716 1.1949542 -6.7949295e-06 5.2551509e-39
2.0745535 1.1954979 -7.9870224e-06 5.2551509e-39
2.0824707 1.1960433 -7.7486038e-06 5.2551509e-39
2.0952227 1.1946819 -8.4638596e-06 5.2551509e-39
2.1064506 1.1954477 -8.225441e-06 5.2551509e-39
2.1145189 1.1937442 -7.390976e-06 5.2551509e-39
2.1226275 1.1965511 -7.7486038e-06 5.2551509e-39
2.1356869 1.1951749 -8.1062317e-06 5.2551509e-39
2.1471875 1.1959522 -8.4638596e-06 5.2551509e-39
2.1554539 1.1942306 -8.9406967e-06 5.2551509e-39
2.1637578 1.1947852 -7.9870224e-06 5.2551509e-39
2.1721029 1.1953431 -7.390976e-06 5.2551509e-39
2.1861086 1.1962805 -7.8280764e-06 5.2551509e-39
2.1973848 1.197034 -6.7949295e-06 5.2551509e-39
2.246176 1.1948341 -7.9075498e-06 5.2551509e-39
2.257848 1.1987301 -6.5565109e-06 5.2551509e-39
2.2844148 1.1957586 -8.9406967e-06 5.2551509e-39
0.8081513 1.2051091 -6.1591468e-06 6.5458897e-39
0.81399345 1.2048997 -5.5053019e-06 5.2551509e-39
0.82507002 1.2049686 -4.9897603e-06 5.2551509e-39
0.83625853 1.2050391 -5.516139e-06 5.2551509e-39
0.84541291 1.2051862 -5.209446e-06 5.2551509e-39
0.85493737 1.2048521 -5.1021575e-06 5.2551509e-39
0.86425662 1.2049998 -6.5998597e-06 5.2551509e-39
0.87392151 1.2051374 -4.7087669e-06 5.2551509e-39
0.8840338 1.2052677 -6.415627e-06 5.2551509e-39
0.89390999 1.2049279 -6.3831158e-06 5.2551509e-39
0.90421009 1.2050545 -5.4478646e-06 5.2551509e-39
0.91427267 1.2047111 -5.8293344e-06 5.2551509e-39
0.92408907 1.2053515 -7.1048735e-06 5.2551509e-39
0.93433553 1.2050043 -5.38826e-06 5.2551509e-39
0.94467962 1.2046558 -5.7220459e-06 5.2551509e-39
0.95477283 1.2053035 -7.1763993e-06 5.2551509e-39
0.96530801 1.2049507 -4.7087669e-06 5.2551509e-39
0.97630233 1.2050852 -5.7220459e-06 5.2551509e-39
0.98524421 1.2052888 -5.463759e-06 5.2551509e-39
0.99390113 1.205005 -5.9127806e-06 5.2551509e-39
1.0048121 1.2046459 -4.8875809e-06 5.2551509e-39
1.0165683 1.2052758 -5.9485437e-06 5.2551509e-39
1.0254625 1.2049876 -6.3180923e-06 5.2551509e-39
1.0344311 1.2046969 -5.7697298e-06 5.2551509e-39
1.0464958 1.2053349 -6.3180923e-06 5.2551509e-39
1.0556242 1.2050427 -6.0200691e-06 5.2551509e-39
1.0648313 1.2047492 -6.6399575e-06 5.2551509e-39
1.0748811 1.2054681 -5.8213868e-06 5.2551509e-39
1.0842416 1.2051742 -6.7591668e-06 5.2551509e-39
1.0940289 1.2052559 -0.0003298189 5.2551509e-39
1.104375 1.2050674 -6.4902833e-06 5.2551509e-39
1.1143676 1.2047547 -6.0796738e-06 5.2551509e-39
1.1244509 1.2049711 -6.9737434e-06 5.2551509e-39
1.1346135 1.2051885 -5.9008598e-06 5.2551509e-39
1.1448693 1.2048723 -6.3313378e-06 5.2551509e-39
1.155504 1.2048521 -7.1525574e-06 5.2551509e-39
1.1656388 1.205313 -6.4108108e-06 5.2551509e-39
1.1761553 1.2044497 -6.9340072e-06 5.2551509e-39
1.1846353 1.2052783 -5.5631003e-06 5.2551509e-39
1.195323 1.2044101 -5.9207282e-06 5.2551509e-39
1.206097 1.2057297 -5.4836273e-06 5.2551509e-39
1.2147882 1.2049221 -6.3578286e-06 5.2551509e-39
1.2235404 1.204106 -7.5101852e-06 5.2551509e-39
1.2345685 1.2054403 -5.7617822e-06 5.2551509e-39
1.24569 1.204553 -6.11941e-06 5.2551509e-39
1.2546611 1.2054073 -6.4969063e-06 5.2551509e-39
1.2636957 1.2045817 -6.3180923e-06 5.2551509e-39
1.2750827 1.2053736 -4.6888986e-06 5.2551509e-39
1.2865688 1.2050419 -6.6161156e-06 5.2551509e-39
1.2958328 1.2042001 -5.1856041e-06 5.2551509e-39
1.3051666 1.2050713 -6.7949295e-06 5.2551509e-39
1.3150371 1.2051297 -4.6730042e-06 5.2551509e-39
1.324038 1.2051053 -7.9274178e-06 5.2551509e-39
1.3335752 1.2042512 -5.9008598e-06 5.2551509e-39
1.343184 1.2051333 -5.1259995e-06 5.2551509e-39
1.3533528 1.2051966 -7.4148179e-06 5.2551509e-39
1.3650717 1.2050984 -6.0399375e-06 5.2551509e-39
1.3773843 1.2047521 -6.1988831e-06 5.2551509e-39
1.3868215 1.2047209 -5.9366225e-06 5.2551509e-39
1.3973312 1.20478 -5.9008598e-06 5.2551509e-39
1.4074181 1.2056865 -5.8412552e-06 5.2551509e-39
1.4150286 1.2036878 -3.695488e-06 5.2551509e-39
1.4226933 1.2052673 -7.2717667e-06 5.2551509e-39
1.4334881 1.2053301 -6.2942504e-06 5.2551509e-39
1.4428098 1.2043518 -5.38826e-06 5.2551509e-39
1.4537674 1.2044102 -4.9471855e-06 5.2551509e-39
1.4642887 1.2053365 -7.0929527e-06 5.2551509e-39
1.4754205 1.2054008 -6.4373016e-06 5.2551509e-39
1.4851464 1.2038397 -0.00021988428 5.2551509e-39
1.4963374 1.2044679 -6.1988831e-06 5.2551509e-39
1.5071874 1.2054065 -5.6028366e-06 5.2551509e-39
1.5153811 1.2051907 -7.6293945e-06 5.2551509e-39
1.5236267 1.2049708 -7.9274178e-06 5.2551509e-39
1.5352471 1.2050347 -6.7234041e-06 5.2551509e-39
1.545846 1.2050048 -6.7353249e-06 5.2551509e-39
1.5565238 1.204972 -5.7697298e-06 5.2551509e-39
1.5655798 1.2057425 -8.3049135e-06 5.2551509e-39
1.5735525 1.2045248 -6.6995622e-06 5.2551509e-39
1.5855941 1.2045869 -6.3180923e-06 5.2551509e-39
1.5942529 1.2043593 -4.529953e-06 5.2551509e-39
1.602392 1.2050407 -6.5803529e-06 5.2551509e-39
1.6146804 1.2051063 -6.9737434e-06 5.2551509e-39
1.6270714 1.2051723 -5.0306321e-06 5.2551509e-39
1.6353921 1.2039288 -6.7949295e-06 5.2551509e-39
1.6449646 1.2047161 -7.2240828e-06 5.2551509e-39
1.6570126 1.2057052 -5.2690507e-06 5.2551509e-39
1.6655058 1.2044498 -6.5565109e-06 5.2551509e-39
1.6752777 1.2052467 -6.6518783e-06 5.2551509e-39
1.6843656 1.205126 -0.0011225434 5.2551509e-39
1.6937692 1.2047807 -5.6505205e-06 5.2551509e-39
1.7062283 1.2057889 -6.4849855e-06 5.2551509e-39
1.7150093 1.2045125 -7.5101852e-06 5.2551509e-39
1.7251136 1.2053226 -7.2240828e-06 5.2551509e-39
1.7340056 1.2040359 -7.2717667e-06 5.2551509e-39
1.7442405 1.2048508 -8.1777571e-06 5.2551509e-39
1.7564787 1.2048144 -6.4969063e-06 5.2551509e-39
1.7662076 1.2045748 -5.7617822e-06 5.2551509e-39
1.7766635 1.2054002 -6.6280363e-06 5.2551509e-39
1.7858649 1.2040919 -7.0333481e-06 5.2551509e-39
1.7964556 1.2049201 -6.8902968e-06 5.2551509e-39
1.8057779 1.2056501 -7.9870224e-06 5.2551509e-39
1.8165054 1.2044327 -6.2704084e-06 5.2551509e-39
1.8259511 1.2051666 -7.9870224e-06 5.2551509e-39
1.8361415 1.2049222 -8.5234642e-06 5.2551509e-39
1.8463899 1.2046765 -7.5101852e-06 5.2551509e-39
1.8532625 1.2052046 -7.2717667e-06 5.2551509e-39
1.8636317 1.2049568 -6.1988831e-06 5.2551509e-39
1.874065 1.2047105 -7.0333481e-06 5.2551509e-39
1.8852772 1.2055651 -6.8426134e-06 5.2551509e-39
1.8951478 1.2063181 -7.8678131e-06 5.2551509e-39
1.9065098 1.2050683 -6.7710876e-06 5.2551509e-39
1.9165126 1.2058241 -6.7949295e-06 5.2551509e-39
1.9236982 1.2042403 -6.3180923e-06 5.2551509e-39
1.9338191 1.204999 -7.3432921e-06 5.2551509e-39
1.9454535 1.2037292 -6.9141388e-06 5.2551509e-39
1.9527706 1.2064176 -6.4373016e-06 5.2551509e-39
1.9645538 1.2051473 -7.5817106e-06 5.2551509e-39
1.9749267 1.2059176 -8.1658363e-06 5.2551509e-39
1.9868717 1.2046361 -8.5115435e-06 5.2551509e-39
1.9973863 1.2054088 -7.5101852e-06 5.2551509e-39
2.0049419 1.2037838 -7.1525574e-06 5.2551509e-39
2.0125327 1.2065225 -7.0333481e-06 5.2551509e-39
2.0247574 1.2052286 -7.7486038e-06 5.2551509e-39
2.0355201 1.2060132 -7.8678131e-06 5.2551509e-39
2.0432544 1.2043715 -8.4638596e-06 5.2551509e-39
2.0541465 1.205158 -8.1539156e-06 5.2551509e-39
2.0666716 1.20384 -6.7949295e-06 5.2551509e-39
2.0745535 1.2066317 -7.9870224e-06 5.2551509e-39
2.0824697 1.2049708 -7.1525574e-06 5.2551509e-39
2.0944235 1.2047086 -8.5830688e-06 5.2551509e-39
2.1064506 1.2044396 -8.225441e-06 5.2551509e-39
2.1145189 1.205011 -7.390976e-06 5.2551509e-39
2.1226275 1.2055862 -7.7486038e-06 5.2551509e-39
2.1348677 1.2053217 -7.7486038e-06 5.2551509e-39
2.1471875 1.2050526 -8.4638596e-06 5.2551509e-39
2.1554539 1.2033529 -8.9406967e-06 5.2551509e-39
2.1637578 1.2062159 -7.9870224e-06 5.2551509e-39
2.1721048 1.2045109 -8.4638596e-06 5.2551509e-39
2.183862 1.2053286 -8.3208088e-06 5.2551509e-39
2.1973848 1.2039596 -6.7949295e-06 5.2551509e-39
2.2455945 1.2049412 -7.8201292e-06 5.2551509e-39
2.257848 1.2057765 -6.5565109e-06 5.2551509e-39
2.2844148 1.2028579 -8.9406967e-06 5.2551509e-39
0.80815142 1.2147956 -6.3180923e-06 6.5458897e-39
0.81436372 1.2146679 -0.00027764481 5.2551509e-39
0.82506895 1.214734 -5.1856041e-06 5.2551509e-39
0.83597356 1.2153325 -4.529953e-06 5.2551509e-39
0.84541345 1.215046 -5.0934877e-06 5.2551509e-39
0.85493797 1.2147565 -5.1693482e-06 5.2551509e-39
0.86487138 1.2149292 -6.8902968e-06 5.2551509e-39
0.87454152 1.2151121 -5.3427434e-06 5.2551509e-39
0.8840332 1.2153075 -6.4492224e-06 5.2551509e-39
0.89390862 1.2150127 -5.1736833e-06 5.2551509e-39
0.9038763 1.2147171 -6.2108038e-06 5.2551509e-39
0.91362935 1.2149107 -5.7653947e-06 5.2551509e-39
0.92374879 1.2150991 -5.9366225e-06 5.2551509e-39
0.93399304 1.2147988 -5.4717066e-06 5.2551509e-39
0.94468057 1.2149787 -6.0905109e-06 5.2551509e-39
0.9554714 1.2151581 -6.1273577e-06 5.2551509e-39
0.96601403 1.2148529 -4.7564508e-06 5.2551509e-39
0.97630185 1.2150559 -5.4173997e-06 5.2551509e-39
0.98550069 1.2150785 -5.4665975e-06 5.2551509e-39
0.99462557 1.2150341 -6.2704084e-06 5.2551509e-39
1.0055434 1.2147229 -4.9352648e-06 5.2551509e-39
1.0161994 1.2149298 -6.5035292e-06 5.2551509e-39
1.0257283 1.2149519 -6.2670028e-06 5.2551509e-39
1.0351812 1.2149049 -5.543232e-06 5.2551509e-39
1.0464447 1.2152334 -0.00092103676 5.2551509e-39
1.0558975 1.2151382 -6.4713613e-06 5.2551509e-39
1.0656013 1.2150919 -6.4730643e-06 5.2551509e-39
1.0748819 1.214837 -6.9936118e-06 5.2551509e-39
1.0846335 1.2150908 -7.3379942e-06 5.2551509e-39
1.0944607 1.2153481 -7.4307122e-06 5.2551509e-39
1.1039772 1.2150899 -6.4969063e-06 5.2551509e-39
1.1140807 1.2150431 -5.8753149e-06 5.2551509e-39
1.1244512 1.2150679 -6.5697564e-06 5.2551509e-39
1.1346136 1.214795 -6.1392784e-06 5.2551509e-39
1.1448683 1.215055 -5.6982039e-06 5.2551509e-39
1.1551663 1.2153805 -0.00074375968 5.2551509e-39
1.1656384 1.2150429 -6.1723922e-06 5.2551509e-39
1.176155 1.2142216 -6.5167746e-06 5.2551509e-39
1.1846347 1.215084 -4.8279762e-06 5.2551509e-39
1.1948941 1.2148167 -6.0319899e-06 5.2551509e-39
1.2060972 1.2156217 -5.5631003e-06 5.2551509e-39
1.214788 1.2148485 -6.1988831e-06 5.2551509e-39
1.2235405 1.2140676 -7.5101852e-06 5.2551509e-39
1.2345685 1.215446 -5.7617822e-06 5.2551509e-39
1.2456897 1.2146028 -5.8412552e-06 5.2551509e-39
1.2546625 1.2154945 -8.1062317e-06 5.2551509e-39
1.2636957 1.2147037 -6.3180923e-06 5.2551509e-39
1.2750833 1.2149762 -4.5895576e-06 5.2551509e-39
1.2865688 1.215255 -6.6161156e-06 5.2551509e-39
1.2958326 1.2144506 -5.1856041e-06 5.2551509e-39
1.3051667 1.215359 -6.7949295e-06 5.2551509e-39
1.3147451 1.2152463 -4.5528664e-06 5.2551509e-39
1.3235629 1.2145582 -8.0108639e-06 5.2551509e-39
1.3335752 1.2146521 -5.9008598e-06 5.2551509e-39
1.3431855 1.2155741 -6.7949295e-06 5.2551509e-39
1.3528666 1.2147576 -7.1525574e-06 5.2551509e-39
1.3650724 1.2150406 -6.0349703e-06 5.2551509e-39
1.3773842 1.2153281 -6.1988831e-06 5.2551509e-39
1.3873204 1.2144963 -6.1988831e-06 5.2551509e-39
1.3973312 1.2154356 -5.9008598e-06 5.2551509e-39
1.4079242 1.2155392 -5.7458878e-06 5.2551509e-39
1.4150286 1.2144142 -3.695488e-06 5.2551509e-39
1.423205 1.215176 -6.9618227e-06 5.2551509e-39
1.4329726 1.2151839 -6.7949295e-06 5.2551509e-39
1.4433306 1.2143334 -6.1591468e-06 5.2551509e-39
1.4537677 1.2152915 -5.1856041e-06 5.2551509e-39
1.4648157 1.2153977 -6.2704084e-06 5.2551509e-39
1.4743564 1.2144439 -6.5565109e-06 5.2551509e-39
1.4855713 1.2145445 -6.2584877e-06 5.2551509e-39
1.4963374 1.2155191 -6.1988831e-06 5.2551509e-39
1.5077322 1.2156265 -5.674362e-06 5.2551509e-39
1.5153812 1.2144634 -7.6293945e-06 5.2551509e-39
1.5241783 1.2152516 -8.2731249e-06 5.2551509e-39
1.5341364 1.214275 -7.0095061e-06 5.2551509e-39
1.5452869 1.2152662 -7.4863433e-06 5.2551509e-39
1.5570885 1.215372 -6.0399375e-06 5.2551509e-39
1.5655798 1.2151823 -8.3446503e-06 5.2551509e-39
1.5741237 1.2149869 -6.7353249e-06 5.2551509e-39
1.5861697 1.2150952 -6.2942504e-06 5.2551509e-39
1.5942529 1.2138944 -4.529953e-06 5.2551509e-39
1.6035569 1.2147037 -5.7697298e-06 5.2551509e-39
1.6152678 1.2157215 -6.7234041e-06 5.2551509e-39
1.6258867 1.2147148 -5.3405761e-06 5.2551509e-39
1.6353925 1.2155358 -7.2717667e-06 5.2551509e-39
1.6437638 1.2143166 -6.222725e-06 5.2551509e-39
1.655804 1.2153463 -6.1035157e-06 5.2551509e-39
1.6655058 1.2142222 -6.5565109e-06 5.2551509e-39
1.6740532 1.2149479 -6.8426134e-06 5.2551509e-39
1.6838756 1.2157812 -6.5565109e-06 5.2551509e-39
1.6927247 1.2138814 -0.00038785077 5.2551509e-39
1.7049782 1.2155917 -6.7472456e-06 5.2551509e-39
1.7150095 1.2144496 -7.5101852e-06 5.2551509e-39
1.7238467 1.2151871 -6.5803529e-06 5.2551509e-39
1.7340057 1.2140362 -7.2717667e-06 5.2551509e-39
1.7429583 1.2147791 -8.3923342e-06 5.2551509e-39
1.7564787 1.2148896 -6.4969063e-06 5.2551509e-39
1.7662098 1.2146838 -7.5101852e-06 5.2551509e-39
1.7759391 1.2160872 -0.00028041966 5.2551509e-39
1.7858649 1.2142648 -7.0333481e-06 5.2551509e-39
1.7951288 1.2150204 -7.4386598e-06 5.2551509e-39
1.8057779 1.2158892 -7.9870224e-06 5.2551509e-39
1.8151611 1.2145993 -6.6041948e-06 5.2551509e-39
1.8259487 1.2154714 -6.2386193e-06 5.2551509e-39
1.8361416 1.2152624 -8.5234642e-06 5.2551509e-39
1.8463899 1.2150508 -7.5101852e-06 5.2551509e-39
1.8532627 1.2156019 -7.2717667e-06 5.2551509e-39
1.8643255 1.2144018 -6.3657762e-06 5.2551509e-39
1.874065 1.2151769 -7.0333481e-06 5.2551509e-39
1.883872 1.2159573 -7.1048735e-06 5.2551509e-39
1.8937031 1.2158399 -0.0018075529 5.2551509e-39
1.9050856 1.2155306 -6.9856642e-06 5.2551509e-39
1.9165126 1.2143103 -6.7949295e-06 5.2551509e-39
1.9236988 1.2148724 -6.7551932e-06 5.2551509e-39
1.934544 1.214653 -7.3313713e-06 5.2551509e-39
1.9454535 1.2144332 -6.9141388e-06 5.2551509e-39
1.9527706 1.2150003 -6.4373016e-06 5.2551509e-39
1.9630772 1.2158005 -7.7962877e-06 5.2551509e-39
1.974925 1.2145584 -6.9141388e-06 5.2551509e-39
1.9853745 1.2153629 -8.5353849e-06 5.2551509e-39
1.9973863 1.2141104 -7.5101852e-06 5.2551509e-39
2.0049419 1.2146858 -7.1525574e-06 5.2551509e-39
2.0125327 1.2152643 -7.0333481e-06 5.2551509e-39
2.0239911 1.2150428 -7.6293945e-06 5.2551509e-39
2.0355208 1.2148168 -8.4638596e-06 5.2551509e-39
2.0432544 1.2154011 -8.4638596e-06 5.2551509e-39
2.0549278 1.2151752 -8.7022781e-06 5.2551509e-39
2.0666728 1.2149483 -7.6293945e-06 5.2551509e-39
2.0745535 1.2155387 -7.9870224e-06 5.2551509e-39
2.0824697 1.2138989 -7.1525574e-06 5.2551509e-39
2.0936236 1.2147274 -8.225441e-06 5.2551509e-39
2.1064506 1.2134316 -8.225441e-06 5.2551509e-39
2.1145189 1.2162778 -7.390976e-06 5.2551509e-39
2.1226277 1.2146213 -7.9870224e-06 5.2551509e-39
2.1340489 1.2154611 -7.6055526e-06 5.2551509e-39
2.1471875 1.2141531 -8.4638596e-06 5.2551509e-39
2.1554539 1.214756 -8.9406967e-06 5.2551509e-39
2.1637578 1.2153604 -7.9870224e-06 5.2551509e-39
2.1721048 1.2136776 -8.4638596e-06 5.2551509e-39
2.1847053 1.2157364 -8.5830688e-06 5.2551509e-39
2.1973848 1.2131937 -6.7949295e-06 5.2551509e-39
2.2447219 1.2130733 -7.6889992e-06 5.2551509e-39
2.257848 1.2128227 -6.5565109e-06 5.2551509e-39
0.80815142 1.2244817 -6.1988831e-06 6.5458897e-39
0.81427306 1.2252456 -5.9821391e-06 5.2551509e-39
0.82517284 1.2248371 -4.7127405e-06 5.2551509e-39
0.83597314 1.2251488 -5.0067902e-06 5.2551509e-39
0.84541321 1.2249063 -5.6624413e-06 5.2551509e-39
0.8546474 1.2251388 -4.9309297e-06 5.2551509e-39
0.86425632 1.2248949 -6.2855806e-06 5.2551509e-39
0.87392169 1.2251229 -4.8995016e-06 5.2551509e-39
0.88370597 1.2248766 -6.3419343e-06 5.2551509e-39
0.89390939 1.2250987 -5.3752551e-06 5.2551509e-39
0.90387672 1.2248492 -5.7762318e-06 5.2551509e-39
0.91427267 1.2250724 -5.6266786e-06 5.2551509e-39
0.92442912 1.2248207 -6.3896177e-06 5.2551509e-39
0.9346478 1.2250552 -5.4619527e-06 5.2551509e-39
0.94468009 1.2253014 -6.4730643e-06 5.2551509e-39
0.95512116 1.2250464 -6.1869623e-06 5.2551509e-39
0.96566027 1.2247876 -4.5418737e-06 5.2551509e-39
0.97630155 1.2245289 -5.7578086e-06 5.2551509e-39
0.9849869 1.225531 -4.6321325e-06 5.2551509e-39
0.99426305 1.2250965 -6.5922736e-06 5.2551509e-39
1.0051773 1.2248335 -5.1021575e-06 5.2551509e-39
1.0161986 1.22457 -6.0319899e-06 5.2551509e-39
1.025197 1.2255919 -6.5735408e-06 5.2551509e-39
1.034806 1.2251476 -6.4373016e-06 5.2551509e-39
1.0461154 1.2248806 -5.1617621e-06 5.2551509e-39
1.0556241 1.2251741 -5.9405961e-06 5.2551509e-39
1.0652162 1.2249511 -6.7816841e-06 5.2551509e-39
1.0751585 1.225016 -6.0626439e-06 5.2551509e-39
1.0850246 1.2250111 -6.353855e-06 5.2551509e-39
1.09446 1.2247934 -6.4770379e-06 5.2551509e-39
1.1043754 1.225091 -6.7154565e-06 5.2551509e-39
1.1143671 1.2253914 -5.4041543e-06 5.2551509e-39
1.1244515 1.2246342 -7.0068572e-06 5.2551509e-39
1.1343216 1.2251693 -5.6198664e-06 5.2551509e-39
1.1448692 1.2252388 -6.2518648e-06 5.2551509e-39
1.1552066 1.2250077 -6.377697e-06 5.2551509e-39
1.1656392 1.224774 -6.9671205e-06 5.2551509e-39
1.1764567 1.224841 -6.403242e-06 5.2551509e-39
1.184635 1.2248904 -5.284945e-06 5.2551509e-39
1.195323 1.2252004 -6.0399375e-06 5.2551509e-39
1.2057251 1.2255405 -0.0006223392 5.2551509e-39
1.2147886 1.2247758 -6.8942704e-06 5.2551509e-39
1.2235402 1.2240288 -7.0730844e-06 5.2551509e-39
1.2345685 1.2254516 -5.7617822e-06 5.2551509e-39
1.2456897 1.2246529 -5.8412552e-06 5.2551509e-39
1.2546625 1.2255806 -8.1062317e-06 5.2551509e-39
1.2636957 1.2248256 -6.3180923e-06 5.2551509e-39
1.2750837 1.2245798 -5.7617822e-06 5.2551509e-39
1.2865686 1.2254682 -6.3379607e-06 5.2551509e-39
1.2958328 1.2247009 -5.1856041e-06 5.2551509e-39
1.3058255 1.2254174 -0.0005804575 5.2551509e-39
1.3145654 1.2248766 -4.6491623e-06 5.2551509e-39
1.3240371 1.2241017 -6.8942704e-06 5.2551509e-39
1.3335752 1.2250532 -5.9008598e-06 5.2551509e-39
1.3436677 1.2251922 -6.6280363e-06 5.2551509e-39
1.3528652 1.2252342 -5.543232e-06 5.2551509e-39
1.3650726 1.2249833 -7.1128211e-06 5.2551509e-39
1.3768892 1.2249733 -6.1511992e-06 5.2551509e-39
1.387319 1.2251107 -4.6491623e-06 5.2551509e-39
1.3978338 1.2252533 -6.1511992e-06 5.2551509e-39
1.4069118 1.2243563 -5.9366225e-06 5.2551509e-39
1.4150286 1.2251406 -3.695488e-06 5.2551509e-39
1.4226918 1.2249888 -5.7816505e-06 5.2551509e-39
1.4324566 1.2250315 -6.6757202e-06 5.2551509e-39
1.4433308 1.2251731 -6.4373016e-06 5.2551509e-39
1.4542922 1.2253174 -5.8174132e-06 5.2551509e-39
1.4637597 1.2244017 -6.1511992e-06 5.2551509e-39
1.4748884 1.224543 -6.4969063e-06 5.2551509e-39
1.4862721 1.2255965 -0.00033432365 5.2551509e-39
1.495761 1.2254497 -0.00045847756 5.2551509e-39
1.5066426 1.2247716 -5.5313112e-06 5.2551509e-39
1.5153812 1.2255906 -7.6293945e-06 5.2551509e-39
1.5230738 1.2244493 -6.3419343e-06 5.2551509e-39
1.5346922 1.2245941 -7.1525574e-06 5.2551509e-39
1.5464067 1.2247417 -7.5340272e-06 5.2551509e-39
1.5576538 1.2257781 -6.7234041e-06 5.2551509e-39
1.5655798 1.224622 -8.3446503e-06 5.2551509e-39
1.5746958 1.2254556 -7.3432921e-06 5.2551509e-39
1.5850182 1.224499 -6.3419343e-06 5.2551509e-39
1.5942529 1.2253366 -4.529953e-06 5.2551509e-39
1.602391 1.2241645 -5.7220459e-06 5.2551509e-39
1.6140932 1.225221 -7.2240828e-06 5.2551509e-39
1.6264791 1.2253715 -5.1856041e-06 5.2551509e-39
1.6353925 1.2252078 -7.2717667e-06 5.2551509e-39
1.6443639 1.2250394 -6.4373016e-06 5.2551509e-39
1.6570135 1.2251939 -6.0558318e-06 5.2551509e-39
1.6655058 1.2239945 -6.5565109e-06 5.2551509e-39
1.6752784 1.224857 -7.1763993e-06 5.2551509e-39
1.6838772 1.225616 -7.9870224e-06 5.2551509e-39
1.6937692 1.2245134 -5.6505205e-06 5.2551509e-39
1.706228 1.2256047 -6.4849855e-06 5.2551509e-39
1.7150093 1.2243867 -7.5101852e-06 5.2551509e-39
1.7251132 1.2252637 -6.6518783e-06 5.2551509e-39
1.7340022 1.2240342 -4.529953e-06 5.2551509e-39
1.7442405 1.2249196 -8.1777571e-06 5.2551509e-39
1.7564787 1.2249646 -6.4969063e-06 5.2551509e-39
1.76621 1.2247914 -7.5101852e-06 5.2551509e-39
1.7766645 1.2256855 -7.4148179e-06 5.2551509e-39
1.7858649 1.2244377 -7.0333481e-06 5.2551509e-39
1.7964563 1.2253368 -7.4148179e-06 5.2551509e-39
1.8057796 1.2261295 -9.2983246e-06 5.2551509e-39
1.8165054 1.2249826 -6.2704084e-06 5.2551509e-39
1.8259476 1.225777 -5.364418e-06 5.2551509e-39
1.8368231 1.2246268 -8.6545942e-06 5.2551509e-39
1.8463899 1.2254252 -7.5101852e-06 5.2551509e-39
1.8532627 1.2239196 -7.2717667e-06 5.2551509e-39
1.8629382 1.2247205 -6.0319899e-06 5.2551509e-39
1.874065 1.2256434 -7.0333481e-06 5.2551509e-39
1.8845743 1.2254629 -6.6757202e-06 5.2551509e-39
1.8951486 1.2252846 -8.4638596e-06 5.2551509e-39
1.9057982 1.2251008 -7.2717667e-06 5.2551509e-39
1.9165126 1.224918 -6.7949295e-06 5.2551509e-39
1.9237 1.2255048 -7.6293945e-06 5.2551509e-39
1.9352696 1.224314 -7.5578691e-06 5.2551509e-39
1.9454535 1.2251372 -6.9141388e-06 5.2551509e-39
1.9527706 1.223583 -6.4373016e-06 5.2551509e-39
1.9638155 1.2255452 -7.6889992e-06 5.2551509e-39
1.974925 1.2253605 -6.9141388e-06 5.2551509e-39
1.9861214 1.2251737 -7.2717667e-06 5.2551509e-39
1.9973863 1.2249874 -7.5101852e-06 5.2551509e-39
2.0049419 1.2255878 -7.1525574e-06 5.2551509e-39
2.0125327 1.2240062 -7.0333481e-06 5.2551509e-39
2.0232251 1.2248502 -7.7486038e-06 5.2551509e-39
2.0355208 1.2236199 -8.4638596e-06 5.2551509e-39
2.0432544 1.2264307 -8.4638596e-06 5.2551509e-39
2.0557084 1.225199 -8.5353849e-06 5.2551509e-39
2.0666752 1.2260573 -9.2983246e-06 5.2551509e-39
2.0745535 1.2244457 -7.9870224e-06 5.2551509e-39
2.0824702 1.2250594 -7.5499215e-06 5.2551509e-39
2.0944219 1.2248647 -7.390976e-06 5.2551509e-39
2.1064506 1.2246715 -8.225441e-06 5.2551509e-39
2.1145189 1.2252913 -7.390976e-06 5.2551509e-39
2.1226277 1.2236563 -7.9870224e-06 5.2551509e-39
2.1348677 1.2257211 -7.7486038e-06 5.2551509e-39
2.1471875 1.2232534 -8.4638596e-06 5.2551509e-39
2.1554539 1.2261591 -8.9406967e-06 5.2551509e-39
2.1637578 1.2245049 -7.9870224e-06 5.2551509e-39
2.1721048 1.2251362 -8.4638596e-06 5.2551509e-39
2.1847053 1.2249367 -8.5830688e-06 5.2551509e-39
2.2933564 1.2271793 -7.7486038e-06 5.2551509e-39
2.3113801 1.2261212 -8.5830688e-06 5.2551509e-39
2.3204587 1.2267823 -7.7486038e-06 5.2551509e-39
0.8081513 1.2341681 -6.1392784e-06 6.5458897e-39
0.81427222 1.2349598 -5.51939e-06 5.2551509e-39
0.82496607 1.23532 -4.6173732e-06 5.2551509e-39
0.83597374 1.2349644 -4.7141857e-06 5.2551509e-39
0.84541363 1.234766 -5.3535809e-06 5.2551509e-39
0.85525715 1.2350297 -5.4836273e-06 5.2551509e-39
0.8648712 1.2348301 -6.6518783e-06 5.2551509e-39
0.87454134 1.235103 -5.1151624e-06 5.2551509e-39
0.88433111 1.234902 -6.2855806e-06 5.2551509e-39
0.89390886 1.2351849 -5.6982039e-06 5.2551509e-39
0.90387619 1.2349818 -6.067753e-06 5.2551509e-39
0.9139353 1.234776 -5.6982039e-06 5.2551509e-39
0.92377943 1.2350615 -5.8737669e-06 5.2551509e-39
0.93399304 1.2353442 -5.6266786e-06 5.2551509e-39
0.94433403 1.2351382 -6.1631204e-06 5.2551509e-39
0.95477235 1.2349302 -6.6399575e-06 5.2551509e-39
0.96530831 1.2347186 -5.1379202e-06 5.2551509e-39
0.97630239 1.2349988 -5.9062786e-06 5.2551509e-39
0.98524421 1.2353215 -5.463759e-06 5.2551509e-39
0.99390143 1.2351534 -6.2942504e-06 5.2551509e-39
1.0048119 1.2349389 -4.6491623e-06 5.2551509e-39
1.0158297 1.2347246 -5.5551527e-06 5.2551509e-39
1.0254626 1.235556 -6.3379607e-06 5.2551509e-39
1.034806 1.2348666 -5.9472191e-06 5.2551509e-39
1.045737 1.2351679 -4.9829482e-06 5.2551509e-39
1.0553511 1.2352068 -5.7390757e-06 5.2551509e-39
1.0652158 1.2347987 -6.8306922e-06 5.2551509e-39
1.0748817 1.235135 -6.8147979e-06 5.2551509e-39
1.0846322 1.2349497 -5.6425729e-06 5.2551509e-39
1.0947424 1.2350599 -7.0503779e-06 5.2551509e-39
1.1047736 1.2350972 -6.8068503e-06 5.2551509e-39
1.1143678 1.2349179 -6.3975654e-06 5.2551509e-39
1.1240462 1.2347375 -6.353855e-06 5.2551509e-39
1.1346136 1.2356076 -6.11941e-06 5.2551509e-39
1.1448687 1.2348857 -5.7220459e-06 5.2551509e-39
1.1552054 1.234695 -5.0465264e-06 5.2551509e-39
1.1656386 1.2350447 -6.6995622e-06 5.2551509e-39
1.1761559 1.2353972 -7.5300536e-06 5.2551509e-39
1.184635 1.2346967 -5.4240227e-06 5.2551509e-39
1.1953229 1.2350489 -5.7617822e-06 5.2551509e-39
1.2057053 1.2357807 -0.00093235302 5.2551509e-39
1.2147888 1.2347027 -7.212162e-06 5.2551509e-39
1.2235388 1.2339891 -5.543232e-06 5.2551509e-39
1.2345691 1.2354579 -6.2916015e-06 5.2551509e-39
1.2456897 1.2347029 -5.8412552e-06 5.2551509e-39
1.2546611 1.235665 -6.4969063e-06 5.2551509e-39
1.2636957 1.2349476 -6.3180923e-06 5.2551509e-39
1.2747633 1.2343748 -0.00060564035 5.2551509e-39
1.2861065 1.2347803 -5.7697298e-06 5.2551509e-39
1.2958342 1.2349526 -6.7949295e-06 5.2551509e-39
1.3047072 1.2354659 -0.00082254136 5.2551509e-39
1.3145654 1.2352017 -4.6491623e-06 5.2551509e-39
1.3240366 1.234464 -6.377697e-06 5.2551509e-39
1.3335752 1.2354543 -5.9008598e-06 5.2551509e-39
1.3431858 1.2347146 -6.8147979e-06 5.2551509e-39
1.3523794 1.2347884 -5.5789947e-06 5.2551509e-39
1.3644595 1.2349348 -7.3164701e-06 5.2551509e-39
1.3773842 1.2347157 -6.1988831e-06 5.2551509e-39
1.387321 1.2357281 -6.7551932e-06 5.2551509e-39
1.3973316 1.2349731 -6.2584877e-06 5.2551509e-39
1.4074181 1.2342089 -5.8412552e-06 5.2551509e-39
1.4150286 1.2358669 -3.695488e-06 5.2551509e-39
1.4221798 1.2347972 -5.7935713e-06 5.2551509e-39
1.4328225 1.2348551 -0.00066085858 5.2551509e-39
1.4438511 1.2351621 -6.8187715e-06 5.2551509e-39
1.4532442 1.2342827 -5.5074693e-06 5.2551509e-39
1.4642879 1.234464 -6.3975654e-06 5.2551509e-39
1.4748893 1.235509 -7.3313713e-06 5.2551509e-39
1.4861064 1.2356963 -5.5551527e-06 5.2551509e-39
1.4957968 1.2348065 -5.9604645e-06 5.2551509e-39
1.5071874 1.2349917 -5.6028366e-06 5.2551509e-39
1.5153811 1.2348632 -7.6293945e-06 5.2551509e-39
1.5236243 1.2347293 -5.8213868e-06 5.2551509e-39
1.5352477 1.2349193 -7.2956086e-06 5.2551509e-39
1.5458468 1.2350025 -7.5101852e-06 5.2551509e-39
1.5570102 1.2343537 -0.00074827351 5.2551509e-39
1.5655766 1.2359471 -5.2452087e-06 5.2551509e-39
1.5735534 1.2348177 -7.5578691e-06 5.2551509e-39
1.5855955 1.2350084 -7.7486038e-06 5.2551509e-39
1.5942545 1.2348729 -5.9604645e-06 5.2551509e-39
1.6029736 1.2347366 -5.6028366e-06 5.2551509e-39
1.615268 1.2349318 -6.7234041e-06 5.2551509e-39
1.6264791 1.235014 -5.1856041e-06 5.2551509e-39
1.6353925 1.23488 -7.2717667e-06 5.2551509e-39
1.6449639 1.2357683 -6.6518783e-06 5.2551509e-39
1.655804 1.2348264 -6.1035157e-06 5.2551509e-39
1.6655058 1.2357212 -6.5565109e-06 5.2551509e-39
1.6740539 1.2345499 -7.367134e-06 5.2551509e-39
1.6838773 1.2354494 -7.9870224e-06 5.2551509e-39
1.6925303 1.234268 -6.5565109e-06 5.2551509e-39
1.7049783 1.2353992 -7.0095061e-06 5.2551509e-39
1.7150095 1.2343237 -7.5101852e-06 5.2551509e-39
1.7238467 1.2351201 -6.5803529e-06 5.2551509e-39
1.7340022 1.2340345 -4.529953e-06 5.2551509e-39
1.7429577 1.2348388 -7.8678131e-06 5.2551509e-39
1.7564787 1.2350397 -6.4969063e-06 5.2551509e-39
1.7662098 1.2348988 -7.5101852e-06 5.2551509e-39
1.7753537 1.235711 -7.0095061e-06 5.2551509e-39
1.7858632 1.2346094 -5.6028366e-06 5.2551509e-39
1.7951294 1.2354283 -7.9631809e-06 5.2551509e-39
1.8057796 1.2343209 -9.2983246e-06 5.2551509e-39
1.8151617 1.2351406 -7.1287154e-06 5.2551509e-39
1.8259476 1.2340221 -5.364418e-06 5.2551509e-39
1.8354599 1.2348505 -8.1300732e-06 5.2551509e-39
1.8463899 1.2357997 -7.5101852e-06 5.2551509e-39
1.8532625 1.2343168 -7.2717667e-06 5.2551509e-39
1.8643255 1.2352698 -6.3657762e-06 5.2551509e-39
1.874065 1.23611 -7.0333481e-06 5.2551509e-39
1.8852766 1.2349752 -6.3657762e-06 5.2551509e-39
1.8951486 1.2358212 -8.4638596e-06 5.2551509e-39
1.9065107 1.2346776 -7.6293945e-06 5.2551509e-39
1.9165126 1.2355258 -6.7949295e-06 5.2551509e-39
1.9237 1.2340101 -7.6293945e-06 5.2551509e-39
1.9338198 1.2348623 -7.8201292e-06 5.2551509e-39
1.9454535 1.2337005 -6.9141388e-06 5.2551509e-39
1.9527717 1.2343122 -7.2320304e-06 5.2551509e-39
1.9638594 1.2359865 -0.00072014896 5.2551509e-39
1.974925 1.2361627 -6.9141388e-06 5.2551509e-39
1.9868698 1.2349923 -7.0095061e-06 5.2551509e-39
1.9973863 1.2358642 -7.5101852e-06 5.2551509e-39
2.0049419 1.2343097 -7.1525574e-06 5.2551509e-39
2.0125327 1.2349335 -7.0333481e-06 5.2551509e-39
2.0239911 1.2347782 -7.6293945e-06 5.2551509e-39
2.0355208 1.2346238 -8.4638596e-06 5.2551509e-39
2.0432525 1.2352533 -7.2717667e-06 5.2551509e-39
2.0549278 1.2351009 -8.7022781e-06 5.2551509e-39
2.0666752 1.2349433 -9.2983246e-06 5.2551509e-39
2.0745535 1.2333527 -7.9870224e-06 5.2551509e-39
2.0824716 1.2362201 -8.3446503e-06 5.2551509e-39
2.0952213 1.2350101 -7.5101852e-06 5.2551509e-39
2.1064506 1.2359114 -8.225441e-06 5.2551509e-39
2.1145189 1.2343047 -7.390976e-06 5.2551509e-39
2.1226277 1.2349501 -7.9870224e-06 5.2551509e-39
2.1348677 1.2347888 -7.7486038e-06 5.2551509e-39
2.1471875 1.2346289 -8.4638596e-06 5.2551509e-39
2.155452 1.2352804 -7.7486038e-06 5.2551509e-39
2.1637578 1.2336495 -7.9870224e-06 5.2551509e-39
2.1721048 1.2365946 -8.4638596e-06 5.2551509e-39
2.3113801 1.2308899 -8.5830688e-06 5.2551509e-39
0.80815136 1.2452381 -6.1690807e-06 6.5458897e-39
0.81427282 1.2446748 -5.5594878e-06 5.2551509e-39
0.82518852 1.2450649 -5.401098e-06 5.2551509e-39
0.83568823 1.2452514 -4.378232e-06 5.2551509e-39
0.84512597 1.2450995 -5.4836273e-06 5.2551509e-39
0.8546477 1.244945 -5.1910229e-06 5.2551509e-39
0.86425668 1.2447906 -6.6865573e-06 5.2551509e-39
0.87392187 1.2451088 -5.233288e-06 5.2551509e-39
0.88370609 1.2449535 -6.5565109e-06 5.2551509e-39
0.89357871 1.2447951 -5.6385993e-06 5.2551509e-39
0.90387672 1.2451141 -6.0146504e-06 5.2551509e-39
0.91393644 1.2449559 -6.4047899e-06 5.2551509e-39
0.92442954 1.2452774 -7.0095061e-06 5.2551509e-39
0.93467951 1.2451169 -5.6028366e-06 5.2551509e-39
0.94502705 1.244957 -6.3657762e-06 5.2551509e-39
0.95547163 1.2447947 -6.4730643e-06 5.2551509e-39
0.96601427 1.2446301 -5.2809714e-06 5.2551509e-39
0.97612834 1.2457882 -1.9910331e-05 5.2551509e-39
0.98550028 1.2451141 -4.8194611e-06 5.2551509e-39
0.99462557 1.2451918 -6.246567e-06 5.2551509e-39
1.0055434 1.2450259 -4.9352648e-06 5.2551509e-39
1.0165681 1.2448601 -5.5313112e-06 5.2551509e-39
1.025463 1.2447268 -6.8147979e-06 5.2551509e-39
1.0344312 1.2445909 -6.0200691e-06 5.2551509e-39
1.0461156 1.2449268 -4.9140717e-06 5.2551509e-39
1.0556241 1.2453033 -5.9008598e-06 5.2551509e-39
1.0648315 1.2451694 -6.9499015e-06 5.2551509e-39
1.0746039 1.245249 -6.1307633e-06 5.2551509e-39
1.0846317 1.2448792 -5.674362e-06 5.2551509e-39
1.0944604 1.2452617 -7.1128211e-06 5.2551509e-39
1.1043756 1.2451185 -7.2055391e-06 5.2551509e-39
1.1143674 1.2444427 -5.6823096e-06 5.2551509e-39
1.1244512 1.2448267 -6.6624748e-06 5.2551509e-39
1.1346134 1.2452136 -5.7220459e-06 5.2551509e-39
1.1444573 1.2450744 -5.9843064e-06 5.2551509e-39
1.1549089 1.2451562 -5.0919398e-06 5.2551509e-39
1.1656388 1.2453153 -6.3975654e-06 5.2551509e-39
1.1761553 1.245169 -6.8346658e-06 5.2551509e-39
1.1846353 1.2445031 -5.5631003e-06 5.2551509e-39
1.1953225 1.2448975 -5.2981904e-06 5.2551509e-39
1.2060975 1.2452976 -5.8809915e-06 5.2551509e-39
1.2147888 1.2446295 -7.2320304e-06 5.2551509e-39
1.2235397 1.2439514 -6.5366426e-06 5.2551509e-39
1.2345686 1.245463 -5.8412552e-06 5.2551509e-39
1.2456897 1.2447531 -5.9008598e-06 5.2551509e-39
1.2546611 1.2457509 -6.4969063e-06 5.2551509e-39
1.2636957 1.2450696 -6.3180923e-06 5.2551509e-39
1.2750838 1.2449145 -5.7617822e-06 5.2551509e-39
1.286568 1.2441906 -5.7816505e-06 5.2551509e-39
1.2958342 1.2452029 -6.7949295e-06 5.2551509e-39
1.3056352 1.2454164 -7.0333481e-06 5.2551509e-39
1.3140954 1.2446163 -6.5803529e-06 5.2551509e-39
1.3240366 1.244827 -6.377697e-06 5.2551509e-39
1.3335756 1.2458555 -6.1591468e-06 5.2551509e-39
1.3431858 1.2451541 -6.8545341e-06 5.2551509e-39
1.3528652 1.2444426 -5.543232e-06 5.2551509e-39
1.3650727 1.2448654 -7.1128211e-06 5.2551509e-39
1.3773842 1.2452918 -6.1988831e-06 5.2551509e-39
1.3878196 1.2455126 -6.8426134e-06 5.2551509e-39
1.3968294 1.2446873 -6.4134597e-06 5.2551509e-39
1.4074186 1.2449054 -6.3180923e-06 5.2551509e-39
1.4150286 1.2448056 -3.695488e-06 5.2551509e-39
1.4226919 1.2447085 -6.0399375e-06 5.2551509e-39
1.4334881 1.2449306 -6.2942504e-06 5.2551509e-39
1.4433308 1.2450472 -6.4373016e-06 5.2551509e-39
1.4537683 1.2443084 -5.6624413e-06 5.2551509e-39
1.4642881 1.2453872 -6.4373016e-06 5.2551509e-39
1.4754214 1.2456162 -7.4386598e-06 5.2551509e-39
1.4850338 1.2447624 -5.3405761e-06 5.2551509e-39
1.4963382 1.2449894 -6.9737434e-06 5.2551509e-39
1.5077327 1.2452179 -6.246567e-06 5.2551509e-39
1.5153812 1.2441359 -7.6293945e-06 5.2551509e-39
1.524175 1.2450151 -5.4836273e-06 5.2551509e-39
1.5341364 1.2441473 -7.0095061e-06 5.2551509e-39
1.5452869 1.2452571 -7.4863433e-06 5.2551509e-39
1.5570892 1.245489 -6.5565109e-06 5.2551509e-39
1.5655766 1.2453868 -5.2452087e-06 5.2551509e-39
1.5741235 1.2452849 -6.5366426e-06 5.2551509e-39
1.5861709 1.2455226 -7.4386598e-06 5.2551509e-39
1.594256 1.2444094 -7.390976e-06 5.2551509e-39
1.6035576 1.2453156 -6.4134597e-06 5.2551509e-39
1.6140921 1.2444227 -6.3419343e-06 5.2551509e-39
1.626479 1.2446564 -5.1856041e-06 5.2551509e-39
1.6353925 1.244552 -7.2717667e-06 5.2551509e-39
1.6437639 1.2453566 -6.222725e-06 5.2551509e-39
1.6565814 1.2443612 -0.0010739233 5.2551509e-39
1.6655058 1.2454935 -6.5565109e-06 5.2551509e-39
1.674666 1.2453879 -7.2717667e-06 5.2551509e-39
1.6838772 1.2452829 -7.9870224e-06 5.2551509e-39
1.6931502 1.2451739 -6.4969063e-06 5.2551509e-39
1.7062292 1.2454211 -7.2717667e-06 5.2551509e-39
1.7150093 1.2442608 -7.5101852e-06 5.2551509e-39
1.7251136 1.2452056 -7.1763993e-06 5.2551509e-39
1.7340027 1.2440351 -5.0067902e-06 5.2551509e-39
1.7442394 1.2449874 -7.1287154e-06 5.2551509e-39
1.7564785 1.2451149 -6.4969063e-06 5.2551509e-39
1.76621 1.2450063 -7.5101852e-06 5.2551509e-39
1.7760091 1.2448945 -7.212162e-06 5.2551509e-39
1.7858614 1.244781 -4.1723251e-06 5.2551509e-39
1.7957928 1.244671 -7.6889992e-06 5.2551509e-39
1.8057796 1.2445601 -9.2983246e-06 5.2551509e-39
1.8165066 1.2455332 -7.05719e-06 5.2551509e-39
1.8259476 1.2443284 -5.364418e-06 5.2551509e-39
1.8368223 1.2453114 -8.0823902e-06 5.2551509e-39
1.8463917 1.2461751 -8.9406967e-06 5.2551509e-39
1.8532627 1.244714 -7.2717667e-06 5.2551509e-39
1.8629385 1.2455795 -6.2704084e-06 5.2551509e-39
1.874065 1.244483 -7.0333481e-06 5.2551509e-39
1.8838711 1.2453541 -6.3896177e-06 5.2551509e-39
1.8951486 1.2442505 -8.4638596e-06 5.2551509e-39
1.9050856 1.245126 -7.0333481e-06 5.2551509e-39
1.9165126 1.244012 -6.7949295e-06 5.2551509e-39
1.9237 1.2446418 -7.6293945e-06 5.2551509e-39
1.9345446 1.244523 -7.6293945e-06 5.2551509e-39
1.9454535 1.2444044 -6.9141388e-06 5.2551509e-39
1.9527723 1.2450409 -7.6293945e-06 5.2551509e-39
1.9630778 1.2459366 -8.2731249e-06 5.2551509e-39
1.974925 1.2448044 -6.9141388e-06 5.2551509e-39
1.9848672 1.2460357 -0.00038638269 5.2551509e-39
1.9973863 1.2445657 -7.5101852e-06 5.2551509e-39
2.0049419 1.2452117 -7.1525574e-06 5.2551509e-39
2.0125327 1.2458608 -7.0333481e-06 5.2551509e-39
2.0247569 1.2447132 -7.5101852e-06 5.2551509e-39
2.0355208 1.2456276 -8.4638596e-06 5.2551509e-39
2.04408 1.2453767 -0.00053748832 5.2551509e-39
2.0541472 1.2449956 -8.8691713e-06 5.2551509e-39
2.0666752 1.2438293 -9.2983246e-06 5.2551509e-39
2.0745535 1.2444865 -7.9870224e-06 5.2551509e-39
2.0824716 1.2451482 -8.3446503e-06 5.2551509e-39
2.0944219 1.2450272 -7.390976e-06 5.2551509e-39
2.1064506 1.2449033 -8.225441e-06 5.2551509e-39
2.1145208 1.243319 -8.7022781e-06 5.2551509e-39
2.1226277 1.2462438 -7.9870224e-06 5.2551509e-39
2.1356869 1.2450588 -8.1300732e-06 5.2551509e-39
2.1471875 1.2460045 -8.4638596e-06 5.2551509e-39
2.155452 1.2444029 -7.7486038e-06 5.2551509e-39
2.1637566 1.2450795 -7.1525574e-06 5.2551509e-39
2.1721048 1.2457613 -8.4638596e-06 5.2551509e-39
2.1889193 1.2494354 -8.7022781e-06 5.2551509e-39
0.80815196 1.2549251 -7.1922937e-06 6.5458897e-39
0.81399292 1.2548541 -4.6383252e-06 5.2551509e-39
0.82496637 1.2548497 -5.0306321e-06 5.2551509e-39
0.83628654 1.2550588 -4.1246412e-06 5.2551509e-39
0.84572953 1.254951 -5.233288e-06 5.2551509e-39
0.85525686 1.2548409 -5.2452087e-06 5.2551509e-39
0.86484152 1.2552052 -6.3506041e-06 5.2551509e-39
0.87454128 1.2550943 -5.0284648e-06 5.2551509e-39
0.8843317 1.254985 -6.9466505e-06 5.2551509e-39
0.89420962 1.2548721 -5.516139e-06 5.2551509e-39
0.90387648 1.2552466 -6.3061716e-06 5.2551509e-39
0.91393578 1.2551348 -6.1869623e-06 5.2551509e-39
0.9240883 1.255022 -5.8054925e-06 5.2551509e-39
0.93433601 1.2549083 -5.9247018e-06 5.2551509e-39
0.94468021 1.2547944 -6.687641e-06 5.2551509e-39
0.95512134 1.2546781 -6.2704084e-06 5.2551509e-39
0.96566093 1.2545607 -5.6147574e-06 5.2551509e-39
0.97594565 1.2554426 -5.6028366e-06 5.2551509e-39
0.98470187 1.2557603 -0.00044969222 5.2551509e-39
0.99426305 1.255249 -6.4611436e-06 5.2551509e-39
1.0051777 1.2551323 -5.8770179e-06 5.2551509e-39
1.0161986 1.255015 -6.0558318e-06 5.2551509e-39
1.0257285 1.2546952 -6.4202718e-06 5.2551509e-39
1.0351821 1.254813 -6.7830088e-06 5.2551509e-39
1.0464948 1.2546909 -5.0783156e-06 5.2551509e-39
1.0556248 1.2545949 -6.7353249e-06 5.2551509e-39
1.0652161 1.2550101 -6.4770379e-06 5.2551509e-39
1.0748824 1.2554313 -7.470449e-06 5.2551509e-39
1.0846323 1.2548088 -5.7750276e-06 5.2551509e-39
1.0941788 1.2554599 -7.6123647e-06 5.2551509e-39
1.1043748 1.2551305 -6.7949295e-06 5.2551509e-39
1.1146547 1.2547981 -6.3180923e-06 5.2551509e-39
1.124856 1.2549202 -6.1273577e-06 5.2551509e-39
1.1346135 1.2548202 -5.9405961e-06 5.2551509e-39
1.1448684 1.2552502 -5.364418e-06 5.2551509e-39
1.1552056 1.2556858 -5.0862632e-06 5.2551509e-39
1.1656388 1.2550457 -6.4637925e-06 5.2551509e-39
1.1761554 1.2549416 -7.0730844e-06 5.2551509e-39
1.1846352 1.2543092 -5.443891e-06 5.2551509e-39
1.1953231 1.254747 -6.1061646e-06 5.2551509e-39
1.206098 1.25519 -6.3975654e-06 5.2551509e-39
1.2147883 1.2545555 -6.7353249e-06 5.2551509e-39
1.223853 1.2547799 -6.0796738e-06 5.2551509e-39
1.2345686 1.2554687 -5.8147643e-06 5.2551509e-39
1.2456902 1.2548035 -6.4770379e-06 5.2551509e-39
1.2546619 1.2558376 -7.5499215e-06 5.2551509e-39
1.2636948 1.2551906 -5.2452087e-06 5.2551509e-39
1.2750838 1.255082 -5.7617822e-06 5.2551509e-39
1.2865682 1.2544038 -5.7816505e-06 5.2551509e-39
1.2958332 1.2554523 -5.6823096e-06 5.2551509e-39
1.3051666 1.2547964 -6.7949295e-06 5.2551509e-39
1.314567 1.254131 -6.3180923e-06 5.2551509e-39
1.3240365 1.25519 -6.377697e-06 5.2551509e-39
1.3340533 1.2554431 -5.0783156e-06 5.2551509e-39
1.3427036 1.2546695 -7.0333481e-06 5.2551509e-39
1.3528652 1.2549206 -5.543232e-06 5.2551509e-39
1.3656842 1.2548015 -5.9753656e-06 5.2551509e-39
1.3773843 1.2558678 -6.1988831e-06 5.2551509e-39
1.3871987 1.2548715 -0.00026929038 5.2551509e-39
1.3973306 1.2545059 -5.1856041e-06 5.2551509e-39
1.4074187 1.2556015 -6.5565109e-06 5.2551509e-39
1.4150286 1.2537441 -3.695488e-06 5.2551509e-39
1.4226924 1.2554659 -6.5565109e-06 5.2551509e-39
1.4329714 1.2547755 -5.5034957e-06 5.2551509e-39
1.4428104 1.2549264 -6.0558318e-06 5.2551509e-39
1.4537683 1.2551893 -5.6624413e-06 5.2551509e-39
1.4648161 1.2554572 -6.6518783e-06 5.2551509e-39
1.4743571 1.2546433 -7.2240828e-06 5.2551509e-39
1.4855703 1.254907 -5.6028366e-06 5.2551509e-39
1.496879 1.2551775 -7.367134e-06 5.2551509e-39
1.5066433 1.2543516 -6.1035157e-06 5.2551509e-39
1.5153812 1.255263 -7.6293945e-06 5.2551509e-39
1.5230734 1.2542034 -6.1035157e-06 5.2551509e-39
1.5346909 1.2544712 -5.9008598e-06 5.2551509e-39
1.5464067 1.2547446 -7.5340272e-06 5.2551509e-39
1.5576538 1.2559007 -6.7234041e-06 5.2551509e-39
1.5655766 1.2548264 -5.2452087e-06 5.2551509e-39
1.5746944 1.255759 -6.246567e-06 5.2551509e-39
1.5850201 1.2549145 -8.0585478e-06 5.2551509e-39
1.594256 1.2558516 -7.390976e-06 5.2551509e-39
1.6023916 1.2547643 -6.3419343e-06 5.2551509e-39
1.6146795 1.2550421 -6.1988831e-06 5.2551509e-39
1.6270723 1.255324 -5.9604645e-06 5.2551509e-39
1.6353925 1.2542242 -7.2717667e-06 5.2551509e-39
1.6449639 1.2551762 -6.6518783e-06 5.2551509e-39
1.655804 1.2543066 -6.1035157e-06 5.2551509e-39
1.6655058 1.2552658 -6.5565109e-06 5.2551509e-39
1.6746662 1.2551906 -7.2717667e-06 5.2551509e-39
1.6838773 1.2551163 -7.9870224e-06 5.2551509e-39
1.6931503 1.2550383 -6.4969063e-06 5.2551509e-39
1.7049786 1.2552068 -7.2717667e-06 5.2551509e-39
1.7150095 1.2541978 -7.5101852e-06 5.2551509e-39
1.7247332 1.2547255 -0.00068902154 5.2551509e-39
1.7340039 1.2540362 -5.9604645e-06 5.2551509e-39
1.7429554 1.2548974 -5.9604645e-06 5.2551509e-39
1.7564787 1.25519 -6.4969063e-06 5.2551509e-39
1.7662098 1.2551138 -7.5101852e-06 5.2551509e-39
